# 3D point list with one line of data per point:
#   POINT3D_ID, X, Y, Z, R, G, B, ERROR, TRACK[] as (IMAGE_ID, POINT2D_IDX)
# Number of points: 229, mean track length: 13.293253278559014
6335 -0.41871256943098095 -1.4607982894597058 6.9856805958232906 11 18 28 0.39768446377013894 166 871 169 362 170 1085 161 489 171 775 172 392 173 839 174 1018 175 1029 176 981 177 1021 178 615 179 1108 180 1133 181 1122
6336 0.43739230505577947 -1.2667543328373894 5.6129522487478942 4 10 24 0.36675604286839925 167 359 169 367 170 1246 171 933
6337 -0.39974930719499363 -1.2836021922859422 6.3508770931751704 65 72 80 0.23502404671968552 166 892 167 378 168 408 169 380 170 1251 171 935 173 1149
6338 0.40798638674060017 -1.2003824415231907 5.5528037385568672 45 60 75 0.75738821340495521 167 384 169 389 170 1110 170 1258 161 500 171 946
6340 -1.6026065885624488 -2.5435475959258071 8.7382795250862362 76 77 83 0.40118078840213761 166 1165 167 443 168 477 169 440 163 240 165 436 161 600 162 389 158 439 155 413 156 444 170 1300 171 976 172 601
6341 -1.6456371684061077 -2.501731077960339 9.2668970894360712 143 139 140 0.21604137661818051 162 413 166 1014 168 301 169 454 163 268 165 285 161 393 170 1179 171 857 174 1072 175 1101 176 1051 177 1083 178 682
6342 -1.5345655938280964 -2.2611077942192352 8.428561438767419 184 187 200 0.65331653415450353 166 1181 167 456 169 457 170 1178
6343 -0.48935790015579689 -1.7536080366844791 7.8685323330980435 115 126 143 0.31653422073230547 162 664 166 1219 167 486 168 524 169 490 163 314 165 495 161 674 170 1222 171 903 172 536 173 997 174 992 175 1132 176 1083 177 1111 178 719 179 1085 180 1115 181 1187 182 769 183 1289 184 1208 186 1271 187 1318 189 1225 188 1320 190 1348 191 907
6344 0.54660844235246553 -1.5330109928194899 6.8980677200939446 232 248 251 0.56921565653457451 166 1071 169 497 163 318 165 345 161 466 162 484 170 1227 171 910 172 647 173 1120 174 1103 175 1139 176 1093 177 1202 178 872 179 1229 180 1209 181 1256
6345 0.29587894933742154 -1.5452113059880708 7.5207633851894231 81 88 103 1.0936110085586497 162 501 166 1090 167 502 168 393 169 506 165 364 167 353 158 549 161 486 170 1241 171 925 172 554 173 1127 174 1109 175 1144 176 1176 177 1205 178 816 179 1231 180 1279 181 1258 182 887 183 1399 184 1350 185 1420 186 1353 187 1407 189 1324
6346 0.218499349991467 -1.5018040926437501 7.3818710398645884 15 33 60 0.89879496604240339 162 504 166 1093 167 504 168 396 169 508 165 366 167 355 161 490 170 1242 171 926 172 654 173 1133 174 1111 175 1226 176 1103 177 1208 178 819 179 1175 179 1232 180 1283 178 878 181 1312 182 890 183 1440
6347 0.5799193218063684 -1.268932886609184 5.7873291457917979 59 80 96 0.46370214157295975 166 1242 167 646 169 511 168 541 165 632
6348 0.39012033029535087 -1.2278000555269972 6.0694435423157973 10 14 21 0.25034493313477246 168 420 169 522 166 898 170 1362 171 1130 172 763
6349 0.37152563939276984 -1.0563963556409206 5.6834671332888025 43 58 69 0.13117453276301708 167 541 169 530 170 1378
6350 0.37152563939276984 -1.0563963556409206 5.6834671332888025 43 58 69 0.13117453276301708 167 542 169 531 170 1379
6351 0.43382490031081772 -1.2832797085074943 5.6415546234795677 39 70 91 0.42278957634195685 167 503 168 535 169 621 170 1353 171 1122 172 760
6352 0.40078432149880039 -1.2569830125367938 5.5917300022185001 24 71 97 1.1134273791507672 167 362 168 400 169 623
6353 0.41957225244754609 -1.1844504452553841 5.5527155485853834 1 17 36 0.30952456263758127 167 520 169 630 170 1367
6354 0.37660126165424074 -1.065784015805848 5.6111614017518026 11 43 53 0.07957417330551618 167 539 169 641 170 1380
6355 0.37660126165424074 -1.065784015805848 5.6111614017518026 11 43 53 0.07957417330551618 167 540 169 642 170 1381
6356 -0.47570238008736426 -1.7621562718350703 7.1337183223496554 16 43 67 0.62080644238332072 162 799 166 1319 167 713 168 631 169 687 163 554 165 606 167 604 164 541 159 468 160 484 161 802 157 491 155 708 170 1419 171 1088 172 726 173 1209 175 1276 177 1284 178 907 180 1322 181 1295 182 876
6358 0.40618614554984711 -1.1473236689448099 5.5586878407155531 58 78 107 0.062979295287321879 166 1250 169 721 165 643
6359 0.39347358590791154 -1.2789486974685931 5.5966129466020167 50 86 112 2.5650006478786382 168 665 169 766
6361 -1.5815070690346293 -2.3248582043718686 8.621181005935421 210 215 224 0.644454230254486 166 1447 167 803 168 794 169 786 165 735 162 996 161 907 170 1561 171 1239
6362 -1.5399371834335833 -2.29252114932553 8.5159135699244786 210 215 224 0.52822433703631821 166 1446 167 804 168 793 169 787 163 544 165 734 162 995 164 607 161 906
6363 0.40316495182819018 -1.2013857853871248 5.5546254978714913 79 89 110 1.3315943125450915 167 827 169 810 170 1577 171 1282
6364 0.42135734329480429 -1.1915457192642493 5.5333879170288682 2 15 35 0.55840717254566086 166 1473 167 828 168 862 169 842 165 763 170 1578
6365 0.36539328940286619 -1.1803145630703014 6.1620288025106973 86 96 108 1.0848389170744761 162 1079 169 863 170 1594 171 1284 172 896 173 1385 174 1369
6366 1.2185961986008484 -1.6700389219071532 7.646895448089758 11 15 22 1.1519308396784955 166 1569 167 888 168 925 169 885 165 872
6367 0.21987991975873747 -1.1263623993613263 5.9675917747892528 85 94 109 1.0056186956825961 168 918 169 887 165 864
6368 -0.38534406544519528 -1.1688390750923816 5.9957638651823348 184 199 225 0.35067406819855673 167 745 168 683 169 719 168 772 169 774
6369 -1.6280549118030521 -2.5859831531303508 8.766189135037882 182 183 185 0.14014596781411201 161 363 170 762 171 671 172 302
6370 -1.6271491143924 -3.0386654482625857 8.6678412332345829 155 171 190 0.12411658425634424 161 321 165 213 167 204 169 211 170 947 168 232
6371 -1.621232939218207 -2.9725032089471863 8.6695747939529841 166 179 191 0.045884148045778887 165 218 169 217 170 952
6372 -0.40303780651227306 -1.3372597959838179 6.3233725259079323 19 24 32 0.32661427791870956 167 367 169 369 170 1097 171 930 172 561 173 1140 174 1217
6373 -1.6543329412887926 -3.0194692893783852 8.7456902197278907 169 177 192 0.37773477879657164 165 217 167 414 169 409 170 1129 166 945 168 236 171 808 172 423
6374 -2.6864930679510532 -5.1031155840186146 15.119473646652169 177 141 108 0.28961368208299532 138 758 165 421 170 1144 149 240 166 967 168 592 130 337 134 763 136 299 137 709 139 311 140 758 142 763 145 700 144 740 146 714 147 485 148 234 141 773 143 281 135 708 129 826 133 807 128 794 132 340 126 336 131 822 150 632 151 236 124 768 127 316 123 304 125 729 171 826 172 444 173 893 174 905 175 919 176 876 177 903 178 492 179 1024 180 1041 181 1041 182 617 183 1134 184 1052 185 1143 186 1063 187 1081 189 973 188 1046 190 1083 191 635 192 1100 193 1306 194 987 195 894 196 923 198 930 197 956 199 1024
6375 -1.6540334626103828 -2.6020640464461833 8.9926693686381078 171 170 176 0.12143790039757377 161 604 165 439 167 445 169 442 170 1163 166 990 168 478 157 290 160 279 162 605 163 244 158 668 156 445 165 258 155 418 171 842 172 459 173 917 174 1057 175 1077
6376 0.83810543375128776 -1.7517381915791059 7.268981017564931 141 110 128 0.12773469900282494 165 317 167 303 169 322 170 1207 168 333 171 889 172 519 173 977
6377 0.34421358635788918 -1.6999335484593741 7.2845363548962583 8 18 39 0.24105405015462311 161 452 165 331 167 479 169 481 170 1216 162 467 166 1057 168 351 163 307 158 522 171 898
6378 -0.49007412166030684 -1.6954499789122597 7.9760437762922383 8 12 20 0.30587678302698346 161 684 165 353 167 493 169 501 170 1231 166 1080 165 506 153 349 163 321 155 740 159 336 152 518 156 760 158 734 171 914 172 546 150 512 173 1007 174 1101 175 1136 176 1092 177 1121 178 727 179 1096 180 1204 181 1196 182 773 183 1352
6379 0.37824013417282421 -1.2255244172776079 5.7567243980221789 50 63 71 0.38884314957336658 169 385 170 1255 171 1035
6380 0.77716544378106145 -2.8087987304534954 8.3014097257864936 32 39 36 0.53787606911646924 153 430 170 1274 149 231 148 226 151 231 147 472 139 297 144 731 146 699 138 745 140 744 137 697 129 524 128 500 171 955 168 574 172 577 173 1050 158 800 174 1034 175 1157 176 1117 177 1138 178 753 179 1117 180 1139 181 1209 180 1223 182 793 183 1306 184 1227 185 1310 186 1236 187 1330 188 1290 190 1318
6381 1.126569315095616 -1.9836184602296896 7.7117051221570838 35 37 33 0.56340717727937639 165 462 170 1315 171 993
6382 0.49313980518205891 -1.4469035140532303 6.8585881828243922 21 36 51 0.40143343752635968 165 627 167 636 169 708 170 1447 168 666 171 1116 172 753 173 1233 174 1264 175 1297 176 1238 177 1264 178 923 179 1277 180 1336 181 1314
6383 -0.38483846106028763 -1.3497305764330405 6.0264952350282393 26 43 56 0.30197942100792202 167 638 169 710 170 1450
6384 0.41504672000834053 -1.3023260964721792 5.6937969399130823 30 74 98 0.15785437045634634 167 634 170 1452
6385 -2.5151509842461373 -5.2898485072579815 16.024607638597644 64 36 15 0.59153798885280462 138 1116 153 687 167 754 169 731 170 1476 154 1428 162 1042 166 1437 168 782 152 1060 160 678 164 659 149 573 155 1050 156 1077 157 673 121 723 130 735 136 767 137 1183 139 666 140 1134 124 1133 131 1056 141 1134 123 670 132 572 142 974 122 1178 129 1227 120 736 128 1203 126 667 158 1064 159 670 148 416 151 662 150 928 161 1032 161 983 125 1070 127 680 116 1708 119 1200 143 488 144 743 143 285 146 719 145 419 171 1148 172 775 173 1249 174 1233 175 1258 176 1207 177 1225 178 841 179 1195 180 1239 181 1218 166 1381 182 804 183 1319 184 1242 185 1320 186 1246 187 1334 189 1240 188 1298 190 1324 191 872 192 1339 193 1548 194 1210 195 1162 196 1181 198 1171 197 1195 199 1154
6386 0.40910545559537764 -1.3109906666824669 5.8052153894722638 65 100 124 1.6705894787364644 167 635 169 712 170 1507
6387 0.40959230506877548 -1.1668911496473309 5.706402637420644 9 19 26 0.5942080089739592 169 773 170 1546
6388 -2.3963830049731496 -5.7424970034933525 16.850906253070573 176 154 140 1.2572069861163095 138 1292 153 791 161 1094 165 785 167 839 169 821 170 1555 154 1532 162 1094 166 1486 168 872 152 1168 160 799 164 723 157 792 145 1196 163 721 149 794 155 1154 156 1181 134 1323 136 837 137 1322 139 926 140 1375 142 1349 141 1375 143 822 144 1292 135 1265 147 1043 132 933 133 1398 146 1296 148 699 158 1178 151 772 159 799 163 747 150 1155 171 1235 172 857 173 1341 174 1311 175 1343 176 1280 177 1308 178 930 179 1289 179 1315 180 1346 180 1371 181 1318 181 1342 182 896 182 923 183 1448 184 1363 185 1429 186 1343 187 1393 189 1300 188 1350 190 1382 191 935 192 1398 193 1608 194 1262 195 1208 196 1232 198 1227
6389 0.1716579906395225 -2.1455151469121532 9.3044396892636438 10 19 31 1.2937065222228048 138 1311 153 801 161 1126 165 844 167 862 169 856 170 1590 154 1542 162 1123 168 895 152 1178 160 831 164 760 149 804 157 825 97 960 130 935 145 1255 163 756 90 1013 155 1194 156 1212 74 1291 105 1481 134 1335 136 855 137 1267 139 936 140 1382 142 1354 77 1246 110 953 126 870 141 1381 143 885 144 1353 75 854 107 940 124 1322 131 1405 135 1279 147 1052 76 1362 108 1518 123 858 132 938 148 757 73 1278 106 1932 122 1364 129 1413 133 1409 146 1304 72 1697 103 946 120 926 128 1387 70 1214 102 1506 117 946 113 973 82 972 92 1524 158 1212 91 1483 151 779 159 831 86 1001 88 2027 89 968 93 1538 99 1448 113 1051 95 934 98 1433 100 941 150 1163 85 968 118 1429 68 1153 83 938 101 1884 116 1921 81 1505 94 2023 96 2090 114 1565 64 1616 80 941 112 1018 112 1093 115 1051 84 1537 104 1419 115 975 87 949 127 881 119 1391 125 1268 69 1163 71 807 78 1370 111 1037 79 944 171 1272 172 888 173 1372 174 1346 175 1393 176 1333 177 1351 178 979 174 1347 182 958 183 1485 184 1397 185 1466 186 1377 187 1426 180 1401 179 1336 181 1369 189 1331 188 1386
6390 0.43230253676752894 -1.2534209497831399 5.633608274040844 6 23 48 1.4607898185861652 167 865 169 881 170 1618 168 898
6391 -0.40284450373569258 -1.3505014380436509 6.0411738314181909 24 43 62 0.59366344312598163 169 359 170 1086 171 577
6392 0.25548481166304438 -1.0949930535992451 5.9328996835267462 43 68 75 0.10283191933523136 170 938 171 625
6393 1.0219290024366081 -2.5605624029965037 8.7668920418059333 3 12 12 0.20130434198498653 155 406 171 666 154 754 156 670 158 654 157 278 152 417 146 461 150 405
6394 1.0960478650776664 -1.977486362434586 7.3951793462129434 44 53 62 0.3457862974560918 168 293 170 1010 171 689 167 259 172 320
6395 0.3463615790017317 -1.4901225407810788 6.9343299863031636 51 63 74 0.24358291958939146 168 388 169 358 170 1081 171 766 167 351 172 385 173 1015 174 1011 175 1023 176 1100 177 1127 178 737
6396 0.39524698962092136 -1.1446802896289263 5.5896770050863527 108 122 143 0.21846975327458662 170 930 171 802 172 419
6397 1.1824155792953679 -5.1799391690220595 15.335552484273796 124 185 244 0.37480910508749282 140 965 155 814 163 407 168 462 169 549 171 824 154 1186 166 1143 159 422 165 420 147 693 161 755 153 595 139 515 152 830 146 922 172 586 173 1065 174 1047 175 1066 176 1021 177 901 178 490 179 1019 180 1038 181 1037 182 481 183 1131 184 1045 185 1137 186 1055 187 1074 189 967 188 1041 190 1183 191 734 192 1204 193 1302 194 982 195 890 196 789 198 787 166 725 197 810 199 915
6398 -1.4954448376705254 -2.4017388553075616 9.2529202570729847 44 50 44 0.22755965234366649 163 442 168 497 169 294 171 872 166 1186 167 279 165 466 161 796 164 419 172 496 173 952
6399 -0.53280175573296107 -1.9494359503146543 8.6509150504482761 11 14 21 0.82392401545786165 163 312 168 357 169 486 170 1218 171 900 161 459 165 336 167 482 162 479 166 1063 172 528 173 989 174 1092 175 1124 176 1072 177 1196 178 865 177 1248 179 1222
6400 0.23081228508843413 -1.981145790117923 9.1493808927083897 79 86 98 0.77437433325520011 155 516 163 316 168 362 169 488 170 1221 171 902 161 676 165 339 167 484 162 665 166 1066 156 537 158 536 172 531 173 990 174 1096 175 1131 176 1076 177 1105 178 712 179 1164 180 1197 181 1181 182 765 183 1347 184 1269 185 1347 186 1309 187 1350 189 1263 188 1337 190 1372 191 926 192 1415 193 1620 194 1274
6401 0.55136097134839135 -1.5358866618924301 6.9196828374323918 229 249 251 0.43223277026047585 168 372 169 496 170 1228 171 911 172 648 173 1121 174 1104 175 1140 176 1094 177 1203 178 873
6402 0.36168364775611378 -1.4890428619457525 6.851483234902898 12 34 63 0.30080770093732717 168 387 171 918 165 358 166 1082 167 348 162 492 161 472 172 550 173 1125 174 1107 175 1143 176 1098 177 1206 178 817 179 1174 180 1282 181 1261 182 850
6403 -0.40470752688766509 -1.2839132511293627 6.3646114695021128 62 68 79 0.16584243706465249 169 381 171 936 173 1148
6404 0.39040561151233349 -1.2166088354342239 5.7124453533102457 19 25 34 0.15107349209308427 169 387 171 941 172 672
6405 0.38741952474755731 -1.202494403535838 6.0612337828444129 49 72 88 0.28364341442767887 169 392 170 1111 171 943 172 566 173 1153 174 1130
6406 -0.44498092047833165 -1.4569690561175515 6.4200050398672515 13 24 38 0.010112299523901382 168 376 171 1019
6407 1.0993342317236796 -2.6650061644445024 8.5008823773462119 70 105 133 0.84663220640508596 155 817 169 648 170 1387 171 1054 167 557 168 584 147 483 153 441 154 1190 156 830 158 813 159 564 157 568 160 564 148 236 151 238 149 238 145 702 144 439 150 631 152 623 172 690 175 1250 176 1200 177 1219 178 890 179 1284
6408 1.4955561261184787 -2.5449885820489797 8.2907056254697924 4 10 22 0.97888387974128965 168 706 169 729 170 1284 171 1056 167 753 170 1473 165 662 167 676 172 693 173 1170
6409 -0.44780095441636081 -1.5470954980415372 7.4138767658499587 8 12 18 0.62156623795115873 168 534 169 615 170 1346 171 1112 167 500 165 362 166 868 168 391 172 750 173 1229 174 1204 175 1291 176 1233 177 1261 178 877 179 1273 180 1333
6410 -1.2963887627180881 -2.5259941343343342 8.5051022841100679 59 61 57 0.97669002055882825 168 714 170 1477 171 1149 167 688 165 669 166 1385 172 825 173 1297 174 1282 175 1344
6411 -0.46604361710295833 -1.7906789490117485 7.2466556565408737 95 123 155 1.0342801730216185 168 632 169 688 170 1420 171 1168 165 608 167 606 163 449 164 424 172 795 173 1309 174 1295 175 1323 176 1288 177 1320 178 960 179 1321 180 1377 181 1368 182 957 183 1483
6412 0.41406255634429429 -1.2714160100222303 5.7566608619527022 31 73 93 0.51085655236380345 169 767 170 1510 171 1225
6413 -0.023525987049209478 -1.3383168248480826 6.7951453096064398 87 99 115 0.49188746484411205 168 857 169 807 170 1575 171 1256 165 808 167 823 166 1470 164 702 174 1354 172 875 175 1401 171 1281 176 1341 177 1361 178 985
6414 1.2709711173051812 -2.8479304794577596 8.343333994393495 52 62 72 1.4938597278391335 163 797 168 928 169 888 170 1620 171 1316 165 877 173 1406 174 1379 175 1407 176 1349 178 1000
6415 0.73916156199062577 -2.809513190879227 8.2706531353600123 109 175 247 0.45725293420474089 156 393 171 361 172 254 173 867 174 868 175 883 176 839 177 871 178 466 179 858 181 1024 182 607 183 1123 184 1035 186 1043 187 1176 189 1072 188 1137
6416 -0.40770716805237872 -1.4073965799263721 6.3662551605836146 19 26 38 1.3199669613116751 170 886 172 391 171 565 173 836
6417 0.40466830843115609 -1.2996211563959104 5.9483855486848407 83 98 109 0.79840974868843761 170 900 171 783 172 399 173 1030
6418 -0.41096784436945394 -1.2315287334812923 6.2835850514033282 193 208 229 0.11135640015091078 170 1106 171 789 172 404 173 1040
6419 -0.4207249426600419 -1.2198864821599713 6.3073938260751294 13 20 30 0.080537945709168446 170 1109 171 791 172 405
6420 0.38578522895215872 -1.2025785366832824 5.7033296498723853 9 21 39 0.29926931705258097 170 921 171 792 172 407
6421 0.38926648089842703 -1.1673682378307304 6.0647075763740323 39 58 70 0.062274745539161423 171 609 172 408 173 856
6422 0.38926648089842703 -1.1673682378307304 6.0647075763740323 39 58 70 0.062274745539161423 171 608 172 409 173 857
6423 0.38965204153034455 -1.1438220485337423 6.0768820081547421 38 56 71 0.1037838186328254 170 926 171 611 172 411 173 860
6424 0.38965204153034455 -1.1438220485337423 6.0768820081547421 38 56 71 0.1037838186328254 170 925 171 610 172 412 173 861
6425 0.28275328371208186 -1.1414304271359648 6.1057552630957446 78 89 102 0.44831220122553717 170 927 171 612 172 413 173 1156
6427 0.1589149297173591 -4.8625435319959855 15.264438652092405 7 13 20 0.2067627479986085 108 602 139 322 156 658 164 384 167 434 170 1151 171 832 172 449 140 770 155 632 168 469 169 430 105 600 138 773 153 452 161 766 165 427 136 312 152 634 160 263 132 349 148 244 166 1153 92 636 123 310 153 242 157 268 158 645 76 551 141 783 142 773 144 756 116 993 117 344 118 530 120 364 128 800 143 295 145 716 146 731 126 341 134 772 149 252 78 539 125 734 133 818 137 719 150 645 59 277 68 480 72 927 74 511 94 1105 154 1002 159 252 162 763 93 634 121 344 124 778 88 1125 91 598 101 1039 147 496 130 343 131 828 151 247 135 718 102 611 106 1085 104 590 96 1214 99 579 119 856 73 490 98 586 114 640 122 797 70 481 127 320 67 494 129 835 66 474 84 637 69 457 58 532 64 893 81 580 63 517 173 899 174 913 176 884 178 506 180 905
6428 0.40768814789063806 -4.7356320180412572 15.222472076624159 9 21 23 0.23203612723097389 108 609 139 328 156 665 167 438 170 1155 172 454 105 606 138 777 153 249 161 585 165 247 169 253 136 318 152 639 160 266 168 264 92 642 148 245 155 638 157 271 158 650 76 554 132 353 140 775 141 788 142 777 144 761 116 1001 118 539 128 524 143 298 145 721 146 736 134 777 149 261 78 540 125 488 133 822 137 454 150 651 124 496 131 514 135 726 147 501 68 485 130 346 72 930 74 514 94 1108 154 1011 159 255 162 594 166 978 93 641 91 605 151 253 163 227 88 1129 104 599 106 1091 102 615 70 484 101 1044 73 493 98 598 114 647 122 519 96 1219 99 588 119 548 60 504 84 645 129 547 61 904 66 480 64 898 67 498 69 461 81 586 63 526 57 543 173 906 174 917 175 927 176 889 177 921 178 508 179 892 180 913 181 897 182 497 183 1004 184 932 185 1010 186 927 187 946 189 857 188 940 190 961 191 496 192 973 193 1319 194 1000 195 908 196 931 198 943 197 964 199 929
6429 0.40807650221150754 -4.7560833249696133 15.284206956540075 9 21 23 0.21745570939250855 108 610 139 329 156 666 167 439 170 1156 172 455 105 607 138 778 153 250 161 586 165 248 169 254 136 319 152 640 160 267 168 265 92 643 148 246 155 639 157 272 158 651 76 555 132 354 140 776 141 789 142 778 144 762 116 1002 118 540 128 525 143 299 145 722 146 737 134 778 149 262 78 541 125 489 133 823 137 455 150 652 124 497 131 515 135 727 147 502 68 486 130 347 72 931 74 515 94 1109 154 1012 159 256 162 595 166 979 93 642 91 606 151 254 163 228 88 1130 104 600 106 1092 102 616 70 485 101 1045 73 494 98 599 114 648 122 520 96 1220 99 589 119 549 60 505 84 646 129 548 61 905 66 481 64 899 67 499 69 462 81 587 63 527 57 544 173 907 174 918 175 928 176 890 177 922 178 509 179 893 180 914 181 898 182 498 183 1005 184 933 185 1011 186 928 187 947 189 858 188 941 190 962 192 974
6430 -1.6270090724575175 -2.5313414793635705 9.320621341425845 85 91 102 0.23490085687313147 156 474 172 476 158 466 173 933 169 280 168 297 165 282 174 943
6431 0.22551979828981686 -1.9503803400916804 8.9742702896997564 78 87 99 0.34204392996347449 156 538 167 485 172 532 165 340 168 363 169 489 155 517 158 535 162 666 166 1067 163 317 161 677 173 991
6432 -0.43193270096525171 -1.6262960208939672 7.483213844252707 9 12 19 0.49715687068543762 167 337 172 547 168 378 169 499 166 860
6433 0.28107610753024415 -1.1315758945800072 6.0842242425440327 8 23 49 0.26041691768003872 167 395 170 1117 171 613 172 569
6434 -1.6246912091086783 -3.2430596208893077 9.3755451448713298 171 197 226 0.17463698088907245 164 489 170 1277 171 957 172 580 168 575 169 536 165 556 167 550 161 748 163 507 166 1267 162 745 173 1053 174 1038
6435 -1.2446355938071263 -2.4879759381906705 8.2758992637364006 164 163 168 0.16348332954363387 167 432 170 1149 172 594 169 428 173 1073
6436 -1.3612339688787478 -2.4701696033851799 8.544906468361404 157 155 161 0.4233518942965343 167 695 170 1400 171 1071 172 602 169 666 165 675 164 664 168 721 166 1389 173 1078
6437 -0.9899027684737296 -2.1424851903637516 8.606597163126338 49 71 91 1.9925818903052976 167 296 171 999 172 628 169 311 170 1042 171 723 173 1102 175 1200 176 938
6438 -0.53749111979105113 -2.0829257121230254 8.5966370357846902 194 218 251 0.65351858057419743 164 430 167 471 170 1329 172 632 161 656 165 479 169 592 160 320 168 507 156 510 163 292 166 1200 158 506 162 648 155 493 159 311 173 1104 174 1084 175 1207 176 1164 177 1190 178 802 179 1215 178 855 180 1258 181 1240 182 830 183 1381 184 1308 185 1378 186 1306 187 1349 189 1259
6439 -0.39362481656174747 -1.4791930340562807 6.3288818648550098 12 24 45 2.2941100693263579 167 623 171 1012 172 643
6440 -0.53334788791424448 -1.4609283362413041 6.9465540309824432 6 11 16 0.3029562214077281 170 1348 171 1024 172 655 169 507 173 1136 174 1209 175 1229 176 1178 177 1213
6441 0.39751075981283301 -1.2656852930208466 5.9511173871665726 36 74 93 0.36400570997494774 171 787 172 668 173 1150 174 1126
6442 -0.66107287135531534 -2.4173048175930933 10.049195114051921 216 235 244 0.33136467836357236 156 885 164 544 167 608 170 1424 171 1089 172 727 163 559 168 634 169 590 161 926 165 609 160 609 166 1325 158 873 159 608 162 917 173 1207 174 1177 175 1205 176 1162 177 1188 178 800 179 1156 180 1189 181 1173 182 827 183 1342 184 1261 185 1339 186 1261 187 1303 189 1213 188 1309 190 1298 191 893 192 1354 193 1564 194 1227 195 1179 196 1219 198 1217 197 1237 199 1209
6443 -0.48656420565072139 -1.8086285046874973 7.3304374482325612 106 128 162 0.66717573082903592 167 607 170 1421 172 796 169 689 174 1296
6444 -0.51720594782834883 -1.4855469683358156 6.8967083456462746 56 69 85 0.67926054382332712 170 1505 171 1178 172 804 167 733 169 762 168 755 165 705 164 453 166 1339 173 1279 174 1299 175 1331 176 1267 177 1299
6445 -0.29803563144691692 -1.3532166149557661 6.8446202734094976 98 108 122 1.1334314032989847 167 740 172 811 168 763 173 1328 174 1305 176 1304 177 1329 178 950 179 1329 180 1393 181 1373
6446 -0.22763985844918344 -1.3235429146634003 6.6844929094300616 74 83 100 0.16186568118812122 170 1457 171 1124 172 812 173 1286 174 1271
6447 -0.24161779058684366 -1.3254309894170597 6.7466730873150222 74 83 100 0.5988526001897444 170 1458 171 1125 172 813 173 1285 174 1270 175 1339 176 1272 177 1303 178 951 179 1311 180 1369
6449 0.40714847803003978 -1.3025833606591544 5.8265659794483566 66 98 118 0.94554800164472885 171 1221 172 874 173 1380
6450 -0.57657158703969058 -1.7380548496938173 7.2197850701612944 10 28 47 0.73303231454663054 167 882 170 1615 171 1307 172 913 169 876 173 1401
6451 0.25167287194871313 -1.3029734257471062 6.9501523921664861 92 100 115 2.0735463027922609 170 1619 172 917 171 1310 173 1408 174 1378 175 1411 172 915 176 1348 177 1374 178 1002 179 1364
6452 0.34236965086347704 -1.2249996525763465 6.328124202520141 90 101 115 1.3001151881816047 170 1622 171 1317 172 924 173 1411
6454 0.38823696650248068 -1.1446456308428841 6.2007078929199837 3 19 36 2.1334454521149904 171 1138 172 815 173 1363
6455 -1.8940672024257341 -3.8384236810880683 9.6393441979247729 120 145 193 0.11116608389382727 166 700 171 356 173 385 170 704 174 686 175 686 176 635 177 669 178 254 179 644
6456 -1.6811470102234172 -3.2656558550055856 9.2159704268835227 101 128 162 0.088390857057129318 166 708 171 365 173 392 170 713 175 689 176 638 177 672 178 256 179 651
6457 0.95868968137836419 -2.0617762999777942 8.097740321100078 4 7 10 0.86448392030855481 166 799 171 471 173 525 170 820 175 529 176 497 177 528
6458 0.48018355908170801 -1.4222318570443766 6.9989294510164184 29 36 44 0.46313999217809121 166 882 171 579 173 638 170 1093 174 634 175 654
6459 -1.6376549769797002 -3.1810529180208627 8.7453217152366722 40 40 48 0.19391863918745411 166 707 173 679 174 688 170 945
6460 -2.7421348277569999 -5.2584804655051309 14.938015332449289 72 65 58 1.0125801036357356 141 466 173 701 137 419 140 452 143 276 146 706 144 735 145 688 147 478 138 462 133 490 134 451 174 1044 170 966 175 1062 177 417 176 403 179 680 180 689 181 689 183 761 184 431 185 496 186 427 187 451 189 1086 186 1177 187 1189 183 974 185 1253 188 1148 191 474 168 780
6461 -1.5349768560969983 -2.328353457537689 9.1253669616148727 149 148 147 0.093210214242238243 166 808 169 299 171 715 172 334 173 778 170 1032
6462 -0.50922544880956755 -1.8513868342000641 7.8426481947619484 95 122 152 0.21376261581541439 166 834 171 738 172 364 173 802 170 852 174 801 175 802 176 765 177 987 178 585 179 959 180 980 181 968 183 1199 184 1119 185 1213 186 1140 187 1249 189 1150 188 1214
6463 -0.66028703382674914 -1.589543292510357 7.0023221505938409 16 33 58 0.11140854291033737 171 552 173 823 170 873
6464 0.12864744321263749 -1.6043361610628917 7.7284337992825511 91 100 115 0.70082184675933779 166 866 169 357 171 764 173 829 170 1080 162 497 174 833 175 830 177 1012 178 731 174 1007 179 1099 180 1127 181 1114 182 696 183 1296 184 1217 185 1306 186 1277 187 1328 189 1268 188 1322 190 1377
6465 0.52141077594541707 -1.4633163149751554 6.8700610196221898 120 135 154 0.220038780402247 166 867 171 772 172 387 173 832 170 1083 174 1015 175 1026 176 977 177 1017 178 740 179 1106 181 1204
6466 -0.19659482949171939 -1.3603412228327549 6.8212484222716174 89 102 116 0.88706780807305441 169 371 171 784 173 844 170 904 172 562 173 1139 174 845 174 1117 175 1236 176 1183 177 1216 178 885 179 1238 180 1339 181 1315
6467 -0.67671228689948082 -2.8270894990788431 11.863906261214929 180 197 218 0.21624884995593255 141 579 158 710 166 1201 169 475 171 885 172 512 173 967 156 731 164 431 167 472 170 1203 140 546 155 716 163 296 168 508 137 530 154 1077 162 649 133 605 150 715 165 480 125 552 157 335 159 313 151 317 160 321 149 325 153 325 161 659 122 584 124 568 129 604 134 579 147 569 148 305 131 586 135 533 152 714 138 568 119 626 128 587 174 970 175 977 176 940 177 972 178 700 179 1068 180 1096 181 1090 182 670 183 1182 184 1102 185 1191 186 1115 187 1135 189 1029 188 1197 190 1223 191 773 192 1246 193 1454 194 1128 195 1061 196 1073 198 1070 197 1163 199 1117
6468 0.33928055421877185 -1.6042743273033884 7.0989863365258357 70 111 152 0.35589780149511696 166 846 169 343 171 754 172 539 173 1000 167 328 170 1067 162 481 161 463 174 995 175 1009 176 1085 177 1115 178 810
6469 -0.59555317101706418 -1.5592071254918773 6.9831122726407848 101 101 113 0.33256563739557421 169 348 171 912 172 544 173 1008 174 1002 175 1138 176 1095 177 1122
6470 0.15897769288901772 -1.6048267076874747 7.6912672128644592 7 31 56 0.24531106191737403 166 865 171 917 173 1013
6471 0.13196146252830612 -1.4577685106178166 7.173659269974773 91 100 115 0.18736566598196658 166 880 172 394 173 1021 170 1088 171 576 174 842 176 982 177 1023 178 617 179 1107 180 1132 181 1121 182 785 183 1302 184 1285 185 1358
6472 0.50162589390553092 -1.4045800556541954 6.9150700997799701 5 6 11 1.0863163213858429 169 510 171 778 172 559 173 1025 169 365 167 361 174 1021 175 1037 176 986 177 1026 178 621
6473 0.38939858365916208 -1.237278728158437 5.8555029933615534 21 32 41 0.1046510680880023 172 402 173 1038 174 1129
6474 1.1239815538924334 -5.0309031299710538 14.929634087649095 120 185 240 0.95252521335409546 109 728 166 1144 173 1066 106 1632 108 1202 111 389 114 977 112 437 113 653 105 925 175 1067 179 1020 181 1038 185 1138 184 1046 186 1056 190 1184 191 735 192 1205 199 916
6475 -2.6212557427878984 -5.1703646041988369 15.334223862102757 73 66 55 0.24605904504214801 141 984 166 1281 169 553 171 967 172 592 173 1070 156 833 167 563 170 1289 163 517 165 571 161 760 145 894 174 1049 175 1069 176 1024 177 1058 178 649 179 1026 180 1043 182 726 184 1173 185 1260 186 1182 187 1194 189 1095 188 1155 190 1186 191 737 192 1209 193 1410 194 1086 195 1015 196 1027
6476 0.55707525102583488 -1.553479752521481 6.9003641055057896 18 27 16 1.1692839273603524 166 1223 171 908 172 644 173 1115 170 1072 162 812 164 442 165 497 168 365 161 816 160 500 176 969
6477 -0.63574804344992575 -1.5636010463583723 6.9762928644285429 78 86 94 0.024587050255730391 171 1016 172 649 173 1118
6478 0.32126186099595927 -1.1590912129743702 6.1660839164273957 84 92 104 0.17527658697297702 171 1039 173 1155 174 1222
6479 1.0144083907511785 -2.3602830888543025 8.2685920139594913 103 100 101 1.326618242499227 158 972 173 1190 156 675 159 439 160 450 162 771 163 417 161 772 164 394 166 1288 165 582 174 1158
6480 -1.4018792951794856 -2.1960565264222716 8.6872056553467871 63 63 61 1.6406407467341677 169 585 171 997 172 720 173 1201 170 1321 166 1313 167 465 164 534 163 280 161 418 162 639 159 303 160 310 174 1173 157 321 158 699 156 719 175 1197 176 1218 177 1238
6481 -0.46230964389374729 -1.7363772424817734 7.4308193711170638 72 88 111 0.60427877653080997 166 1212 169 598 171 1007 173 1217 168 518 170 1331 167 480 174 1186
6482 -0.62698326171056096 -1.5854039800193609 6.9572917381271031 9 25 47 0.11322897962780597 171 1011 172 642 173 1223 170 1338 169 605 174 1196 175 1219
6483 0.39197880945856134 -1.2457705354282345 6.0717503602239971 3 3 7 0.57356295066819274 172 671 173 1241 174 1273 176 1306
6484 0.42092375906810114 -1.653670777703246 6.9001047179795698 174 207 254 0.79751516484391172 169 597 171 1095 172 734 173 1270 170 1431 168 642 174 1253 175 1282 176 1225 177 1286 178 909 179 1301 180 1363 181 1350 180 1383 182 931 183 1472 184 1387
6485 0.5369930968945259 -1.38890173628479 6.9993424990909476 5 9 13 0.84531400824829828 171 1184 172 842 173 1327 174 1304 175 1337 176 1303 177 1328 178 949 179 1310 180 1392 181 1360
6486 0.57543060663073919 -1.5053174726713396 6.8814119367563613 10 19 11 1.2883591283160796 171 1215 172 840 173 1358 170 1536 167 820 165 752 168 805 166 1409 174 1333 175 1366 176 1300
6487 -0.9595082518860778 -2.3027469141142496 7.7908242893925559 91 93 87 0.6503419113525758 169 848 171 1265 172 883 173 1366 170 1586
6491 1.122496829607303 -3.0715860365122998 8.7479502123112116 49 66 87 0.25418519965649289 170 709 173 390 174 394 175 393 176 637 177 670 180 882 181 865 182 455 183 950 184 1034 185 1128 186 1044
6492 1.6401592333968351 -2.7603510783565559 8.887064680094765 6 14 27 2.3931974808071566 142 480 173 404 174 417 144 441
6493 -0.98004358750920639 -2.2358658170213097 8.0529243430198303 40 42 32 0.16176693579683127 170 786 173 471 174 483 171 436
6494 -1.655172679112634 -2.4080623321987074 9.1972789956550542 67 67 64 0.19919338277234236 170 815 173 521 174 524 171 468 175 524 176 491
6495 0.88170463215354189 -1.6670051521050264 7.57832947806485 8 12 7 0.17675990261273336 170 872 173 604 174 598 171 551 175 620
6496 0.39780344217653613 -1.269059906090559 6.0836634535852792 18 24 43 1.3253813670756283 173 658 174 664 175 862 176 1001
6497 0.39634728130364805 -1.2286009091634726 5.8863167187165377 47 68 79 0.12555234418219782 173 669 174 677 175 873
6498 0.90970314604914626 -2.035502473630729 8.0488816705690116 5 10 13 0.30074750647704518 170 824 174 772 171 474 176 736 177 766
6499 -0.46171194519069053 -1.7663430220364742 7.1276624409266667 21 41 68 0.11953641455504886 170 837 174 785 175 786 176 754 177 786 178 390 180 812
6500 1.0635017074184341 -1.7425458011456703 7.5938566847901079 3 5 8 0.33237337733693578 170 861 173 583 174 807 171 531 175 998
6501 1.0626699548689158 -1.7416505267164646 7.5902972912141848 3 5 8 0.19775038863119776 170 860 174 808 171 532
6502 -0.4220303624369493 -1.6776118463478211 7.108428449423533 3 16 28 0.16182475195754789 170 858 173 584 174 809 171 529 175 813 176 954 177 992 178 710 179 1082 180 1109 181 1183 182 767
6503 -0.51627020327681838 -1.6745051210330224 7.0979467590763647 12 27 48 0.44121310333495273 170 1058 173 809 174 811 171 530 175 814 176 956 177 994 178 593 179 967 180 986
6504 0.53014785062814074 -1.613554593843211 6.9359446078550251 43 76 93 0.56543982026831818 170 863 173 591 174 814 171 539 175 815 176 1080 177 997 178 596 179 971 180 990 181 987 182 575
6505 0.85356834285666416 -1.8063204850255734 8.2063954374928318 3 10 9 0.38371693897885711 170 868 172 372 173 815 174 819 169 342 171 750 175 818
6506 0.3678114013832457 -1.5667404046754121 6.8592440304773534 5 16 37 0.53573904435614594 170 870 173 819 174 823 171 547 175 823 176 790 177 611 178 434 179 595 180 621 183 928 184 861
6507 0.79066432978187795 -1.6035132578416258 7.443327046774213 17 26 14 0.28339658344243968 170 876 173 612 174 827 175 828 176 796 177 1008 178 610 179 984 180 1007
6508 0.53827336499657708 -1.4778487754301382 6.8981507585053876 50 63 78 0.16783548984896726 172 386 173 831 174 837 171 769 175 837 177 1016
6509 0.32345842964662136 -1.456262054839631 7.0440981179675557 2 7 14 1.0777485613179489 170 893 172 393 173 838 174 839 171 776 175 1030 176 1104 177 1130 177 1211 178 742 179 1178 179 1234 180 1217 180 1286 181 1205 182 787 182 852 183 1406 184 1357
6510 0.54624376017717635 -1.4133923534164803 6.9183540961542684 38 41 49 0.80118550989094717 172 395 173 841 174 843 175 1036 176 985 177 1025 178 620 179 996 180 655 181 1125
6511 1.0361826218985921 -2.2351201967287548 8.4071472715036997 26 39 49 1.12371816008468 165 452 174 940 164 403 168 487 161 787 163 431 166 1178 167 452 165 454 162 787 159 289 175 949 176 914 179 1047 180 1069 181 1067 182 641 183 1155 184 1078
6512 0.49227591928707404 -1.3968466400691899 7.0799695420191417 4 5 8 0.27264274043323539 170 1096 172 397 173 1026 174 1022 171 781 175 1040 176 1107
6513 0.39089791382539435 -1.2226621885175766 5.8705111293352896 18 23 42 0.23674955577785603 173 852 174 1029 175 1154
6514 -1.9206604817763735 -3.8087216502589722 9.6373182645696449 61 62 69 0.14000332750520986 165 404 170 1121 172 576 173 1049 174 1032 169 398 171 950 167 402 168 445 175 1054 176 1005 177 1038 178 627
6515 1.0714091357215538 -2.1171082799873289 8.2523975495613762 54 64 67 0.86886126689164633 170 1189 172 492 173 1095 174 1075 171 867 169 463 175 1106
6516 -0.46138417892900357 -1.7622248304405232 7.3153514720753252 32 48 62 0.45727571409651735 170 1212 172 522 173 980 174 1087 171 735 167 310 171 895 175 1120 176 1168 177 1192 178 808
6517 0.22462673750751846 -2.0630146975004822 9.2933180876410102 10 25 45 0.74108426539472383 157 504 165 616 172 740 174 1091 164 552 167 728 170 1438 171 1101 149 344 161 935 166 1333 168 752 142 604 153 509 156 898 158 890 159 478 160 497 144 829 152 733 162 926 143 363 155 878 163 567 141 851 150 728 154 1256 148 316 138 584 145 799 134 608 169 701 151 334 135 553 147 586 133 629 146 819 137 545 140 568 151 490 125 561 128 600 129 614 131 605
6518 -0.56095264883072071 -1.603257757797395 6.8815115373712681 100 100 104 1.6004789684597671 170 1334 172 535 173 995 174 1097 167 620 168 649 169 602 175 1006 176 959
6520 0.39308709568369238 -1.2006052869104498 6.0874071237790561 51 70 86 0.44258158244444434 173 1154 174 1131 175 1304 174 1221
6521 0.75676200372097679 -2.6275595368302032 8.9460338249572491 44 43 51 0.69482349452185899 165 668 173 1186 174 1154 167 689 168 715 175 1173
6522 -0.49284485212334367 -1.6422166992739535 7.0350298122028381 39 66 89 0.50564312601068129 170 1333 174 1189 167 618 169 600 175 1214 176 1172 180 1268
6523 -0.57329282783232882 -2.2219321215083521 9.5851448952980753 108 120 128 0.79461917510102675 157 697 172 798 174 1251 149 603 159 699 160 706 161 1000 162 1011 148 557 150 959 139 557 138 1017 130 765 134 1181 117 625 135 966 113 690 128 1093 131 1099 115 710 112 728 120 634 110 682 114 1292 116 1595 119 1106 118 1121 109 1015 122 1081 111 669 108 1253 106 1472 107 444 107 674 175 1280 177 1246 178 860 181 1242 183 1383 184 1310
6524 -0.48187754074331851 -1.5677849841266953 6.9623623325659318 84 108 139 0.39773103054979608 172 802 173 1276 174 1257 171 1105 175 1287 176 1264 177 1295 178 916 179 1267
6525 -0.48187754074331851 -1.5677849841266953 6.9623623325659318 84 108 139 0.39773103054979608 172 803 173 1277 174 1258 171 1104 175 1288 176 1265 177 1296 178 917 179 1268
6526 -0.30945354001288788 -1.3815457344859159 6.8916250570531572 71 75 86 0.5838007925507902 172 659 174 1268 175 1298
6527 0.39835252026641199 -1.2789224743033942 5.9519233299941199 6 12 19 0.34281406646473411 172 761 174 1272 175 1340
6528 0.68908689401052148 -1.5170169242685427 7.1942445684816896 14 22 12 0.8746836229120778 172 892 173 1394 174 1366 171 1277 175 1398 176 1337 177 1356 178 982 179 1347
6529 0.98921363579251742 -2.8647210136419643 8.8726346352099323 37 49 50 1.0079768355707477 165 868 170 1612 172 911 173 1398 169 883 171 1305 167 886 168 921 174 1374 175 1408 176 1346 177 1370 178 997 179 1356 180 1416 181 1390 182 967 183 1497 184 1408 185 1479 186 1389
6530 0.99672346348680385 -2.2585581947572257 8.3943675464572021 28 40 52 0.22649683011612973 171 445 173 483 175 493 176 465 177 486 179 460 180 484 181 464 183 533 184 503 185 823
6531 0.99672346348680385 -2.2585581947572257 8.3943675464572021 28 40 52 0.22649683011612973 171 446 173 484 175 494 176 466 177 487 179 461 180 485 181 465 183 534 184 504 185 824
6532 0.94168403788708743 -1.9381004661595671 8.0801273390967285 1 6 7 0.38511035034753854 171 504 173 556 174 560 175 568 179 791 180 811 181 799 182 549
6533 -0.66630636369284779 -1.6775050566193028 7.1314434101844952 86 119 129 0.16703368011030703 173 588 174 585 175 594 176 777 177 812
6534 -0.54319920850221026 -1.5417567308848827 6.9261013701949992 79 83 100 0.060296778999495003 173 615 174 604 175 628 176 799 177 837
6535 -0.59524251901557568 -1.4810060929405595 6.9545682338927017 10 16 26 0.17798944304781192 173 626 174 618 175 638 176 806
6536 -0.42026138186868867 -1.452167452765192 7.0214603243999338 55 68 80 0.28337937697881815 173 636 174 631 175 649 176 603 177 640 182 591
6537 0.59489013197104501 -1.3904208652500349 7.0703783792449553 109 112 110 0.059678155697747114 173 640 174 638 175 659
6538 -0.36730021083094272 -1.3728857673804828 6.9055216035201683 72 76 88 0.18436742114974539 173 642 174 642 175 665 177 855
6540 -1.1470552179300728 -2.3647591280906055 9.1932132060009124 71 71 69 0.30171829807915201 168 318 175 771 163 278 165 301 166 1027 167 282 169 298 176 735 177 532
6541 0.98110546737644944 -1.9098424785778527 8.1360330568383414 2 7 7 0.29362413379873048 171 514 174 793 175 795 172 358 176 759 177 789 178 395 179 794 180 815
6542 -0.47452179457673244 -1.6817561683667042 7.0789713839707389 38 66 74 0.22158193653583966 171 525 173 579 174 579 175 809 176 771 177 804 178 416 179 965 180 985 181 1107
6543 -0.43015164967620978 -1.6008104310601303 6.9620849666476561 37 54 69 0.20152931173367394 171 546 175 822 173 602 176 789 177 827 178 606 179 978 180 1003 181 1112
6544 -0.40797718858521553 -1.5818280947709589 7.0618380355832109 13 18 25 0.19246021167490088 171 554 173 611 174 825 175 827 176 795 177 1007 178 609 179 1097 180 1123 181 1198 182 777
6545 0.38298881142186819 -1.4872090471320132 6.856055912079464 15 29 51 0.070312858665221911 171 561 173 621 174 611 175 834 176 801
6546 0.68694641085198949 -1.4455633912637498 7.2920416974614897 145 158 176 0.056937574995268199 173 637 175 844 176 815
6547 0.51710594827537681 -1.3756338872456495 7.0741708613289482 1 6 10 0.12976682295942721 173 641 175 846
6549 0.55732014802123842 -1.3618876420321062 7.0309317687550106 112 117 124 0.19032520645508616 173 843 174 844 175 848 176 991 177 1028 176 821 178 622 179 1109 180 1134 181 1126
6550 0.50047721769574305 -1.3469422578430477 6.9608730767778217 5 11 20 0.78247967319552991 173 647 174 647 175 850 176 825 177 1031 178 747 176 993 179 1111 180 1221 181 1266
6551 0.51929719855083278 -1.3185741072864745 6.872546924402962 95 103 116 0.29803535116089097 173 652 174 851 175 852 176 827 177 1033 178 624 179 1113
6553 -1.3008373061054881 -2.6924402390164546 10.326800165402787 26 29 19 0.30761345310356059 168 312 173 768 175 964 165 296 167 462 169 466 170 1190 171 994
6554 0.86243102963371521 -2.0035361122954147 8.0756149957296408 59 59 63 0.11551604833057394 171 878 173 959 174 963 175 972 172 503 177 969 178 563 179 941 180 1093 183 1178
6555 -0.49114755723409015 -1.8152133618468147 7.559878766976313 87 118 148 0.30636177183594493 171 734 173 979 174 985 175 987 172 360 172 523 176 1068 177 1097 178 806 179 1162 180 1263 181 1244 182 879 183 1388 184 1313
6556 -0.66839704365833119 -1.6483521670386301 7.1485942347574065 102 107 112 0.54069809995722595 173 996 175 1007 176 958 177 1000
6557 0.92174284349036062 -1.6560308144348186 7.5190534579699717 5 7 14 0.24904327279438265 173 1001 174 997 175 1011 172 540 171 907 169 493 170 1225 167 488 168 528
6558 0.57629665567251587 -1.4990034995629355 6.9953612129516074 86 99 121 0.41187314398922298 173 1014 174 1010 175 1022
6560 0.54487985916827819 -1.3995902247068994 6.9593223037899019 8 11 15 0.45341188341944177 171 929 175 1038 177 851 178 454 174 637 179 846 180 872
6561 -0.47333849525974386 -1.3577515267433331 6.8904007253606183 111 116 127 0.19585616479554413 171 587 174 847 175 1043 176 824 177 1032 178 748
6562 0.40600111809214545 -1.2723788150604685 6.1353244980560682 86 99 112 0.54725619885440147 174 855 175 1047 176 1188
6563 0.43145827494400457 -1.2319119489439487 6.5081027595567145 107 114 123 0.13056368522118939 173 851 174 860 175 1049 176 1000 177 1133
6564 1.1019046290097541 -4.6379028722431661 15.419882429790121 18 31 23 0.41187044532981854 143 496 168 606 171 977 173 1079 174 1056 175 1076 165 584 170 1301 172 603 166 1289 169 563 163 418 167 579 111 415 135 736 141 795 142 983 144 950 146 937 147 711 84 651 145 1043 148 536 150 935 151 571 81 600 112 461 136 328 139 335 110 414 134 785 138 790 109 745 133 833 137 737 140 784 127 543 96 1543 104 920 107 401 114 1001 164 393 161 771 162 770 160 449 113 412 91 940 99 904 105 950 106 1430 108 943 124 1013 101 1384 102 950 103 418 93 989 94 1435 95 383 98 913 125 950 126 556 128 1059 129 1078 118 1092 132 588 78 549 116 1568 120 605 65 314 73 502 149 581 152 856 154 1347 155 968 153 611 67 753 60 733 63 775 66 744 68 730 69 728 121 594 156 987 158 968 122 1050 57 796 72 943 74 521 61 1133 64 1150 123 542 100 417 113 666 76 564 130 576 134 997 114 1267 97 402 88 1140 92 959 62 314 70 744 54 762 58 542 59 284 56 530 55 301 157 677 159 676 176 1035 177 1065 178 662 179 1136 180 1165 181 1151 182 739 183 1260 184 1180 185 1275 186 1191 187 1206 189 1111 188 1166 190 1195 191 747 192 1215 193 1416 194 1094 195 1024 196 1035 198 1034 197 1054 199 1035
6565 0.68637028088643048 -2.3857572580170401 8.7957302733000908 3 8 13 0.29530923353642424 168 486 171 853 173 931 174 937 175 1091 170 1014 172 611 163 259 165 280 166 1007 167 265 169 277 158 680 162 618 157 303 161 622 155 681 159 282 160 292 153 284 154 1048 156 698
6566 -0.69440213631238112 -1.6777752903353875 7.1346132949666208 23 30 42 0.19364454284360877 173 1110 174 1093 175 1127 176 1073
6567 0.34575697085905654 -1.6513352002532795 7.1267423772266225 62 107 142 1.1411444867538956 171 746 173 813 174 813 175 1128 170 1063 172 368 176 1075 177 1106 178 715 179 1166 180 1201 182 840 183 1395 184 1273
6568 0.54932259815893247 -1.4672809450796234 6.8971808860597497 160 172 190 0.48809012549790565 171 923 173 1016 175 1146 172 555 170 1238 176 1101 177 1209 178 820 179 1176 180 1285
6569 0.79929939951017159 -1.4993951714915408 7.4425939603203002 7 12 14 0.2229234661077967 173 1019 174 1016 175 1147 177 1129 178 818 179 1105
6570 0.46656980597615022 -1.4309295437008362 6.8518581016490385 56 78 99 0.24392978120630437 171 1025 173 1137 174 1113 175 1148 172 558 176 1105
6571 0.52975469695749922 -1.3322099329654749 6.9181076217121626 71 74 82 0.58720963140811677 173 1029 175 1150 172 563 176 1110 177 1217 178 826 179 1181
6572 1.0366066571663852 -2.1391731210406668 8.271412807342605 1 7 10 1.136164316039683 171 1080 173 1198 174 1170 175 1192 170 1409 172 716 176 1155
6573 -0.46396753697192789 -1.5942854290142632 6.9326160161399679 35 51 71 0.15625864798438086 171 1009 174 1194 170 1336 172 741 169 604 175 1218 177 1254 179 1266 178 912
6574 -0.57243297477022359 -1.463986900817301 6.9577247376035194 7 7 10 0.13615240290643266 173 1135 174 1208 175 1228 176 1177 177 1212
6575 1.0296415237921948 -4.9244267370034507 15.023104727937458 69 81 90 1.150932919068117 143 743 159 669 168 710 171 1147 173 1248 174 1232 175 1256 157 672 165 664 170 1475 172 773 169 730 151 661 163 617 166 1379 167 683 169 655 171 1063 155 1048 158 1063 160 677 162 983 111 822 135 1076 142 1219 146 1164 147 919 145 1123 148 630 150 1022 114 1430 154 1426 110 825 126 666 134 1151 139 786 149 672 119 1198 127 679 131 1207 96 1941 104 1297 107 812 109 1138 112 879 115 834 161 981 152 1058 156 1076 164 597 153 685 170 1394 172 704 173 1181 120 735 99 1303 113 831 116 1707 118 1234 95 804 103 817 108 1386 128 1202 94 1867 101 1749 106 1810 125 1068 91 1331 105 1351 102 1354 63 1116 93 1396 98 1286 132 746 55 678 122 1177 123 669 121 721 58 728 59 604 57 1133 54 1104 56 887 60 928 65 655 89 821 97 803 62 639 90 865 92 1373 61 1470 64 1494 67 1079 70 1082 100 799 69 1041 88 1889 66 1069 87 795 85 825 176 1206 177 1156 178 768 179 1194 180 1237 181 1217 182 727 182 803 184 1240 186 1245 187 1280 189 1183 188 1245 190 1268 192 1293 193 1505 194 1164 195 1102 196 1176 198 1168 197 1129 199 1153
6576 0.1832223943996871 -2.0073336503861516 8.0386148016950365 42 69 81 1.338530770418715 143 766 168 797 171 1166 174 1246 175 1321 165 741 170 1495 172 793 140 1259 155 1066 163 686 169 749 104 1315 166 1451 167 769 111 846 135 1208 141 1263 142 1239 144 1230 146 1187 147 936 151 677 87 639 135 1105 149 691 150 1042 152 1076 154 1444 84 1251 115 855 131 1341 145 1147 148 646 114 1453 137 1199 112 897 128 1223 136 780 139 804 160 760 110 843 126 684 134 1263 138 1237 157 756 109 1159 133 1325 127 792 96 1964 107 836 164 676 71 556 99 1324 101 1765 102 1378 103 833 106 1830 91 1352 124 1157 105 1367 161 1049 97 830 130 854 90 885 108 1407 113 853 123 693 127 697 92 1393 94 1888 98 1310 72 1440 95 823 100 820 120 757 70 972 86 882 93 1418 117 760 85 849 118 1256 75 606 128 1312 132 875 76 1099 83 659 82 681 65 542 60 963 74 1029 58 763 57 1011 59 491 63 1008 62 528 56 768 164 675 66 970 65 541 163 685 166 1450 63 1005 64 1380 177 1237 167 768 178 904 179 1261 127 700
6578 0.33757777346262346 -1.755058074435712 7.6275256372421518 5 17 37 0.97114902945214387 168 802 171 1210 174 1321 175 1356 170 1529 172 833 173 1351 167 777 176 1291 177 1321 179 1304 180 1364 181 1334 182 912 183 1454 184 1368 185 1440 186 1370 187 1419 189 1322 188 1388
