# 3D point list with one line of data per point:
#   POINT3D_ID, X, Y, Z, R, G, B, ERROR, TRACK[] as (IMAGE_ID, POINT2D_IDX)
# Number of points: 293, mean track length: 9.0735701107011071
1410 1.8418116562102207 1.0181690788094329 7.4355553044607792 29 22 27 0.36553721042680593 64 1220 68 699 70 862 71 876 72 799 67 1092 83 1227 66 1205 73 1192 74 1238 75 1265 78 1218 79 1559 80 733 58 860 57 650 55 1151 54 641 53 632 52 1153 51 1813 50 1266 65 1306 45 1276 46 703 44 1239 43 651 35 768 33 525 32 748 48 894 29 539 81 1125 82 1182 84 989 105 1226 85 1200 86 1208 87 1123 88 788 89 831
1411 2.2747908170245612 1.2290509503135501 6.9228744017994721 13 30 49 0.9289241983421378 68 705 70 751 72 802 69 1250 67 1096 74 1241 80 735
1412 0.74039435831726852 0.52913633972710294 3.0156931383322667 5 17 32 0.12697832728473255 71 787 72 814 70 765
1413 0.71078623823684128 0.5269853174416661 2.9363076443688625 35 76 110 0.23039019252765092 71 791 72 817 70 775 73 1282
1414 0.69065538361045353 0.71128774750780865 3.4954042644133518 1 6 6 0.95603849586823508 70 656 71 803 72 824 69 1160 68 446 67 622 83 709
1415 0.20412713048291298 0.68896681301407747 3.0183975351575607 69 75 91 1.7962519285765337 71 824 72 842 73 1344
1416 2.3237705723632622 0.56258108726976497 6.0489276860171994 78 93 113 1.1247273717372142 68 868 72 853 69 1401 83 1381
1417 2.2788385472478527 1.0182521911409181 6.2844510074951181 67 79 96 0.41402334758564885 68 787 70 857 72 866 69 1331 67 1189 83 1318 73 1260 74 1303 75 1326 76 822 77 833
1418 1.7836306081423328 1.0097871399383918 7.5458159076780396 83 78 68 0.40229180237929452 64 1317 68 794 72 867 67 1194 69 1336 83 1322 63 1345 66 1302 73 1263 74 1307 75 1329 76 825 77 837 78 1257 79 1603 80 773 62 884 61 972 60 899 55 1318 54 771 53 907 52 1312 51 1967 50 1422 65 1465 49 887 47 1918 45 1443 46 884 44 1406 43 846 42 1358 41 768 40 757 39 746 38 558 36 930 37 643 35 1091 34 1513 33 524 32 1060 48 1250 31 1149 29 538 28 1107 81 1160 82 1183 84 990 105 1247 85 1223 86 1206 87 1124 89 843
1419 1.774588647404765 1.006339069596027 7.5091956428358166 83 78 68 0.44212995417619977 64 1316 68 793 72 868 67 1193 69 1335 83 1321 63 1344 66 1301 73 1264 74 1306 75 1330 76 826 77 836 78 1258 79 1604 80 774 62 883 61 971 60 898 59 844 57 817 56 814 55 1317 54 772 53 908 52 1311 51 1966 50 1421 65 1464 49 886 47 1917 45 1442 46 883 44 1405 43 845 42 1357 41 769 40 756 39 745 38 557 36 929 37 642 35 1090 34 1512 33 523 32 1061 48 1251 31 1150 29 537 28 1106 81 1161 82 1184 84 991 105 1248 85 1224 86 1207 87 1125 91 1587
1420 1.9077715823057115 1.091593599344171 7.416953983271493 53 69 82 1.3958948055224905 64 1390 72 869 74 1308 70 863 68 798 69 1337 71 877 72 800 67 1265 66 1304 77 838 78 1219 62 886 52 1315 51 2085 55 1494 59 845 50 1615 52 1511 65 1467 65 1673 49 700 46 707 42 1207 40 380 39 595 38 366 34 1381 48 895 29 322
1421 0.0050806913355364962 0.50612206202000731 6.1849377283750835 15 37 60 0.30684307102231373 64 1318 68 806 72 874 67 1200 83 1329 63 1348 66 1307 75 1338 62 888 61 975 60 904 58 862 57 823 56 820 55 1323 54 776 53 798 52 1321 51 1974 50 1428 65 1470 49 893 47 1923 45 1449 46 890 44 1417 43 853 42 1369 41 778 40 767 39 757 38 715 36 1067 37 647 34 1523
1422 -0.79836792251099853 0.30226667395098156 6.1954434170814192 144 86 93 0.206714189985272 68 811 70 872 71 884 72 876 69 1345 73 1271 74 1320 75 1340 76 832
1425 0.22595920448358786 0.68987580904272305 3.0515798923303827 33 50 72 0.8974688272031599 70 901 72 897
1426 -0.80422011310739838 -0.50583020152269231 9.2467494955991718 78 98 123 0.50073278085846773 64 1443 72 938 63 1476 67 1305 66 1410 68 915 83 1432 73 1346 62 1014 62 1015 61 1099 61 1100 60 1143 60 1144 59 1079 59 1080 58 1107 58 1108 57 1062 57 1063 56 1047 56 1048 55 1557 55 1558 54 1024 54 1025 53 1040 53 1041 52 1560 52 1561 51 2216 51 2217 50 1662 65 1721 49 1132 47 2149 45 1710 46 1137 44 1669
1429 -0.38604606162393751 0.58953883838202659 3.8481202751565435 146 152 165 0.27991518132699711 71 1038 72 965 70 1026
1430 0.78073118969649324 0.5489349037396265 3.0415716895272999 11 39 64 0.1998783393863742 70 1014 71 1027 72 977
1432 0.62762388271430625 0.60023346108254783 2.8466058831895289 37 58 75 1.0536932901254383 70 1064 71 1083 72 1005 73 1419
1433 0.57305821701459536 0.83190765389928267 3.2113062406878314 6 15 30 2.2461012846031774 71 1095 72 1018 70 1083 73 1428
1436 0.7265454798687172 0.52227135991400031 2.8345886928573703 3 14 28 0.67580438008326837 63 915 66 911 64 940 83 1128 67 1109 72 818 69 1138 70 777 68 719 71 792 74 1385
1438 -0.3960473822320385 0.37441647696947056 7.3326749459986527 19 23 24 0.39787000041505266 66 585 73 519 63 619 64 628 83 637 79 1125 78 761 81 706 82 725 84 548 105 929 86 871 87 810 88 577
1440 1.8760790772330469 1.2035382575866069 6.1206689098230438 15 22 37 0.34402234711103824 69 625 73 554 74 604
1442 -0.68137285347248167 0.4327019129314838 6.0625249713803324 53 27 26 0.078522694876497878 69 653 72 413 73 825 74 877 77 564
1443 0.86963334174658213 0.72941848570337942 4.2195215107131769 76 102 129 0.44257858051304722 69 654 71 441 72 417 73 834 70 445 74 884 75 885 77 574 78 960 79 1334 80 608 81 1018 82 956
1444 -0.081667851467213615 0.46804401989081673 4.5034776615147649 19 42 64 0.46699940534768575 69 658 72 422 73 839 74 891 76 579 77 700
1445 0.71053823001443905 0.52637682640880623 2.8221166378989375 16 64 90 0.091292464429762576 72 437 73 862 74 1080
1446 -0.061295093701890804 0.52520125720819488 4.1572229797235432 11 25 44 0.62408653656821389 69 946 73 864 74 913 72 621 73 1130 75 920 76 595 77 594 78 989 79 1350 77 438
1447 -0.59682160547753882 0.49581498187288253 4.8186309170586057 25 36 23 0.095872100933762375 69 681 73 866 74 914
1449 2.4014193831430353 0.94927473662397932 6.6556997968730816 65 79 99 0.15917695065222667 69 864 72 333 73 940 70 376 76 506 77 501 78 903 79 1275
1450 -0.48115223749304026 0.049426096463256367 7.600760159588928 33 47 23 0.10360884289289357 66 830 73 942 67 756 83 869 68 346 52 635 51 1245 55 636 65 266
1451 -0.69995070867416054 0.074944101046086675 7.3266168684349156 33 29 30 0.30520306713271134 69 1097 71 608 72 551 73 948 70 388 71 394 74 1005 75 1005 62 423 63 869 61 448 60 488
1452 2.3247426489143814 1.1098141279683493 7.8051119740950048 26 29 34 0.22062996760018719 66 853 69 882 71 397 72 356 73 952 68 361 70 390 67 534 83 612 74 1010 75 1009
1453 0.13651509634479914 0.47539856199531272 6.2093465912956471 194 217 224 0.2105882952656275 66 878 69 898 71 620 73 965 70 615 67 789 68 384 70 407 71 407 63 888 64 909 83 898 74 1016 75 1016 76 531 77 524 78 1037 79 1405 80 571 55 674 52 669 65 315
1454 0.89952603543923981 0.63999429010323294 4.3475541899730272 79 111 153 0.51147477692873289 69 1115 71 415 72 567 73 974 68 574 70 415 67 796 83 908 74 1030 75 1169 76 671 77 771 78 1152
1455 0.15056039760083689 0.61095409375951037 6.2536310618039748 186 208 239 0.15593301783919411 66 895 69 913 73 982 67 802 68 399 83 918 64 644 63 635 66 601
1456 -0.13661097308340259 0.43485925913971624 4.4907832243295536 12 31 55 0.5457631099674104 69 1134 72 597 73 1002 67 996
1457 -0.51241154732422367 0.51112764786476761 5.0847720940517274 75 74 65 0.20188066177582303 71 460 72 617 73 1021 74 1075 75 1089
1458 -0.29134170602698067 0.61413602406510281 4.1549608654476282 8 15 25 0.05753265396916557 71 482 73 1040 75 1230
1459 -0.3005025959655937 0.57244077081674605 3.8091413462948354 201 217 232 0.1594636564421579 71 484 73 1041 70 497
1460 0.51090385171838726 0.81378554077867771 3.356578530871785 10 27 52 0.32735346896150858 71 493 72 465 73 1049 74 1200 75 1305 76 805
1461 0.62201012254638943 0.66703509105880088 2.8919771114831327 0 3 6 0.61233223046536089 71 816 72 641 73 1149 74 1271
1462 0.63217950257597 0.71110422652295791 2.8908259046851241 51 64 72 2.0915306912816622 72 651 73 1155 74 1272 75 1373
1463 0.60518693517839395 0.72102752084668109 2.8868631719581397 34 58 76 0.25802780734858977 72 468 73 1156 74 1273
1464 0.6026257595791662 0.70453083257758231 2.8039628919994097 34 48 63 0.23190066476308363 69 715 72 655 73 1158 74 1274
1465 -0.6681481161396704 0.30356171630154899 5.2832370373889113 88 94 63 0.19377023841167684 71 783 72 811 73 1202 70 763
1466 -0.62655477800792314 0.40446266783500834 4.8724393131196804 159 149 155 0.39954238264984399 71 794 72 737 73 1211 70 780
1467 2.5782959532467102 0.25457445544912577 6.5591473318221487 81 95 117 0.39312407245396452 69 1311 72 848 73 1238 70 836 71 852 72 777 73 1170 74 1213 74 1280 75 1307 77 815 78 1243 79 1533
1468 2.1471540343777482 1.0213036893182339 7.9166641995448179 57 61 69 0.46101898788103274 66 1299 73 1258 64 1313 67 1185 83 1314 75 1323 79 1554 80 729 62 629 60 890 59 837 58 852 57 810 56 806 55 1309 54 766 53 781 52 1306 51 1957 50 1412 65 1457 47 1908 45 1437 44 1234 43 647 42 1197 41 601 40 601 39 587 38 550 36 925 37 508 35 965 34 1370 33 517 32 922 48 1084 31 1001 29 527 28 958 81 1158 82 1179 84 985 105 1223 85 1195
1469 -0.7718238397991003 0.25335746926382402 6.3366085951516737 23 24 19 0.26970536364700992 69 1342 73 1268 67 1199 68 805 74 1317 75 1399 76 876 77 891
1470 -0.58336652626166019 0.47750090346068735 4.7993484359081906 28 40 25 0.18163163671606575 71 949 72 889 73 1333 70 933
1471 0.71346093621598838 0.66194645572430344 3.2721382501670297 6 16 28 0.91643752075940321 72 890 73 1334 71 950
1472 0.8835846644582982 0.63488174778559692 3.5118521785576116 14 30 49 0.61528623506575553 72 915 74 1437
1473 0.83083573612957884 0.94576613768797246 5.6059586249432289 2 7 8 0.98868969544866314 66 1375 69 1470 71 1031 72 954 73 1359 64 1402 68 928 70 1017 63 1442 67 1315 83 1400 74 1435 75 1450 76 933 77 972 78 1339 79 1676 80 851 62 978 61 1059 59 964 58 983 57 942 56 924 55 1429 54 899 53 922 52 1444 51 2104 50 1552 58 1060 65 1606 49 904 47 1935 45 1458 44 1430 43 867 42 1382 41 790 40 775 39 770 38 729 36 1081 37 659 35 1109 34 1398 33 678 32 952 32 1079 31 1036 29 561
1474 0.6834100116923908 0.51906393140032769 2.7745493480660626 23 65 90 1.4701922720119385 72 920 73 1362 74 1444
1475 0.65603605462434278 0.70187547807640949 3.441942095310893 4 4 7 2.0694563056205633 71 1036 72 962 73 1364 70 1024
1477 0.081218182045862536 0.63580869108317783 6.2643402740617526 233 240 241 0.31882704865085548 66 1447 71 1024 73 1381 67 1340 70 1009 83 1462 68 950 75 1446 76 929 77 951 79 1673 80 841 62 1026 61 1111 60 1159 59 1093 58 1117 57 1077 56 1058 54 1032 52 1516 51 2166 50 1618 65 1678
1478 -0.37418046688418122 0.40115913925042446 5.1880499147850658 88 96 63 1.6159516467736967 69 1529 71 1068 72 990 73 1401 70 1061 68 983
1479 0.64276540169055385 0.6276609842099734 2.9231035608148295 22 47 68 0.62655896776959041 72 1006 73 1418 74 1473
1480 0.85176309503317971 0.7443790662116665 4.1734723910726155 10 10 16 0.41595990210209033 63 923 83 1134 67 997 64 944 68 596 69 1136 73 1118 83 1133 68 597 64 1118 63 924 69 1137 70 774 71 790 72 733 74 1169 75 1282 76 773 77 786 79 1572 81 1172
1483 -0.3762583408108498 -0.8906096786999993 10.339796599144577 134 178 229 0.22143763278246856 73 391 83 80 74 441 64 498 67 457 69 516 75 419 76 264 78 645 79 760 79 1013 80 225 81 359
1484 2.4217723912716949 0.52715654502730303 6.2928956784564765 34 30 41 0.15165806384121205 73 400 83 106 74 450 75 428 77 263 78 649
1485 -0.87869349993489754 -0.2077330640308914 6.6319207269880778 77 39 42 0.39282239941239094 73 441 83 199 74 489 66 537
1486 -0.71735525346804718 -0.11819937912714372 7.3916897748338668 34 36 31 0.1339694681876748 73 457 83 204 74 507 67 512
1487 -0.74205255620618238 0.025611730552731235 7.4416534050103031 31 33 32 0.48656835943438403 73 474 83 228 74 528 75 809 76 313 77 323 78 905 79 1278 80 557 81 959 82 864
1488 -0.84755955471304933 0.21909252768376761 7.4368732343116637 41 50 52 0.14945079574887277 73 513 83 281 74 571 75 566 76 340 77 348 78 758 79 1299 80 463 81 866
1489 -0.82520126348586809 0.24607463891601128 7.2746365364294761 68 71 24 0.10691397175235516 83 288 74 577 75 571
1491 1.9081710296257792 1.2683311378671667 7.1347594353167612 72 82 44 0.14509112404960947 83 312 74 598 75 595
1492 1.9259281536670092 1.3627691154356865 7.0504694186950339 14 24 29 0.26773017391245996 73 558 83 329 74 611 67 585 69 641 75 613
1493 -0.094674698680605074 0.43133279044986994 4.5978703899656033 70 89 88 0.56885535313971936 83 333 74 617 67 589 75 623 76 383 77 398 79 952
1494 0.05538101579438779 0.67511690698871663 5.9059124438470558 54 63 77 0.21493346564494284 73 570 83 343 74 622 69 655 75 872 76 384 77 396 78 803 79 1167 80 491 81 895 82 932 84 846 105 1078 85 1042 86 1024 87 1019 88 673 89 771
1495 0.056643919590040226 0.67415296546184911 5.8980168161349491 54 63 77 0.13888669932179359 73 571 83 344 74 623 69 656 75 873 76 385 77 397 78 804 79 1168 80 492 81 896 82 933 84 847 105 1079 85 1043 86 1025 87 1020 88 674
1496 0.10414381803623121 0.75767311415523031 6.3701210271547453 17 21 30 0.38684906399198049 73 572 83 346 74 624 75 874 76 382 77 395 78 802 79 1163 81 893 82 931 84 845 105 1076 85 1039 86 1022 87 1018 88 670 89 766 90 1150 92 1227 93 912
1497 -0.001712859429412527 0.66691573773255108 5.8906788996695294 9 19 32 0.17634831160305825 73 575 83 347 74 625 75 877 76 387 77 400 78 805 79 1170 80 374 81 902 82 935 84 737 105 1080 85 1045 86 1027 87 1024 88 675
1498 -0.0016184239430795198 0.66685836038639312 5.8903610039556646 9 19 32 0.17359231629547223 73 576 83 348 74 626 75 878 76 388 77 401 78 806 79 1171 80 375 81 903 79 1325 82 936 84 738 105 1081 85 1046 86 1028 87 1025 88 676
1499 0.06874528235732752 0.70084732442707387 5.9443267091365639 221 235 246 0.30841431643495565 73 577 83 349 74 627 69 657 75 879 76 390 77 402 78 808 79 1327 80 495 81 904 82 937 84 850 105 1082 85 1047 86 1105 87 1022 88 738 89 772 90 1192
1500 -0.074748710282900657 0.65326258165842166 5.9147567283118567 6 12 23 0.29815940468636881 83 351 74 632 75 631 79 1174 80 376 81 749 82 767 84 740 105 970 85 942 86 908 87 963 88 608
1501 0.62675167117770203 0.78530107247645875 3.1837123463261454 23 33 46 0.049564235329234568 73 646 74 707
1502 2.6794059530293239 0.39796854210793753 6.3838317544315863 81 91 106 0.18359709945095162 70 324 72 281 73 687 74 732 71 320 75 735
1503 2.3529892235486365 1.1827440455261478 6.6135704811186944 58 73 85 0.11546865947411408 73 508 83 272 74 826 75 829 76 336 77 344 78 755 79 1123
1504 2.3123983796122909 1.2246380633539218 6.5496570475925946 49 70 84 0.24979402517225172 70 408 73 784 74 837 75 840 76 349 77 525 75 1018 76 532 78 923
1505 1.9493851116603902 1.3553289024987845 6.9936851517511807 126 124 117 0.51313110790115324 72 398 73 812 83 659 74 867 67 805 68 405 71 639 69 919 75 1049 76 557 77 548
1506 0.030130062408905752 0.69081576003079281 5.9002598932914783 180 195 204 0.30860452438360148 73 582 83 352 74 883 69 659 75 882 76 393 77 404 78 811 79 1176 80 497 81 905 82 938 84 741 105 1083 85 1049 86 1032 87 1026 88 678 89 777
1507 0.86039753475934655 0.72001592970432327 4.1758769708955965 80 105 133 0.44566541946651661 70 446 72 418 73 835 74 885 71 442 75 886 77 575 78 961 82 1198
1508 0.81700709639105906 0.99276503735427213 4.0923505071187956 50 60 71 1.4068167510300245 83 395 74 926
1509 0.62979812425611947 0.78228226918231814 3.2993907911041211 45 57 65 0.15071090262592096 73 640 74 931 75 1234 76 801 77 814
1510 0.64678516058753666 0.61867446135181381 2.7679270103583464 68 9 13 0.27376819816111198 73 638 74 932 75 1108
1511 0.61018562872841586 0.7070726147745835 2.8839589291685415 41 60 73 0.16063633842492611 73 650 74 941 75 1112
1512 2.3244421790437846 0.81557973974185871 6.1894873947576654 73 90 111 0.21999723897906248 70 356 69 560 71 358 72 316 73 926
1513 2.3312654674957245 1.1141884672001241 7.8265870312923962 25 30 31 0.21640792185123447 70 389 72 357 73 951 83 613 74 1009 67 535 68 362 71 398 75 1008 76 519 77 657 78 1024
1514 0.89930257942407887 0.63979868862143352 4.3455467114958628 80 113 155 0.5289700567399378 70 416 73 975 74 1031 68 575 69 1116 83 907 67 795 75 1168 76 670 77 770 78 1151 79 1501
1515 0.1817519892396639 0.61857668677632616 6.4572173696393431 33 51 68 0.20109841626992742 70 623 72 572 73 980 83 912 74 1032 64 925 66 892 67 801 63 902 75 1032 76 544 77 678 78 1047 62 457 61 485 60 520 55 688 52 681 51 1295 65 339
1516 1.8927479792681781 1.3281052425144211 7.0514240121276375 87 97 68 0.27546500011708103 70 625 72 579 73 988 83 920 74 1041 66 902 68 583 71 638 69 1122 64 932 63 911 75 1044 76 554
1517 -0.14873102455508225 0.43568612570841869 4.5522842216031956 11 30 52 0.30755009488243729 72 598 73 1001 74 1056 75 1190 76 693 78 1165
1518 0.0081819284583105993 0.46660920908905579 4.3362581809044691 65 110 154 0.46521746183333446 72 600 73 1003 74 1062 71 444 69 932 70 452 68 417 75 1191 76 700 77 577 78 1075 79 1521
1519 0.81264889411180985 0.73303256535567574 4.2108677771470333 21 15 22 0.44908804064137131 83 680 74 1065 67 596 69 660 75 1077 76 580 77 703 78 1078 79 1443 80 693 81 1143 82 1164
1520 -0.60047998274279257 0.44357329662471379 4.9725733525998104 150 143 143 0.25710434635978263 72 439 73 861 74 1072
1521 0.64111900780875852 0.62033695364974417 2.7606248034665755 91 104 124 0.34014749438533709 72 455 74 1094 75 1236
1522 -0.93338659031347992 0.016366472003694201 6.4371157976299109 211 203 214 0.61139167059269839 70 609 74 1140 71 765 72 706 73 1186
1523 2.2286026607394915 1.0750296336863041 6.1569781087983699 24 24 27 0.83239829707575064 70 611 72 559 73 959 74 1142 71 616 68 564 75 1156 76 657 77 666
1524 0.16055381767792387 0.79367001575773977 6.8011148290936587 108 116 131 0.44522759772677772 70 632 73 1112 83 1130 74 1163 64 942 66 1096 67 995 68 593 69 1130 71 644 63 920 75 1184 76 684 77 689 78 1158 79 1509 80 671 62 471 61 503 60 536 59 473 58 460 57 460 55 703 52 696 51 1311 50 731 65 808 47 1217 81 1085 82 1149 84 965 85 1204 86 1188 88 810
1525 0.74940643978303456 0.93123769000812573 4.8640104608507464 90 102 118 0.5207991955139043 72 624 83 946 74 1182 71 664 69 1153 75 1208 76 783 77 795 78 1232 79 1578 78 1175 80 791 81 1145 82 1223 84 1039
1526 -0.046076234483478418 0.67632012954013898 4.5912784070610275 9 12 17 0.39613302295925601 72 633 74 1192 75 1219 76 793 77 809 78 1181 79 1588 80 760 81 1177 82 1204
1527 0.62998509203318831 0.78001631450940823 3.2590963730691578 14 21 36 0.28863619518436984 73 1145 74 1197 75 1304 76 856
1528 0.85129176445478005 0.68992224674223146 4.2436267923407289 5 15 35 0.32398006962021192 70 762 73 1203 74 1249 71 888 72 810 75 1278 76 767 77 781
1529 0.70392643179599079 0.54489237286792824 2.9132283823486804 10 57 80 0.76899197429678745 73 1129 74 1260 75 1410
1531 0.8880397188488266 0.75349580355668655 4.165203382888131 50 61 72 0.46463240952195584 70 931 72 917 73 1327 74 1384 76 914 77 935
1533 2.7244246580639455 0.39967772234616461 7.5250786771805283 128 189 253 1.3794353611199599 70 967 72 967 73 1373 74 1420 69 1453 71 1014 75 1460 76 945 77 976 78 1345 79 1683
1536 0.95303281049254995 0.76487649386944001 4.1787329680375551 26 20 27 0.17198916198392503 73 584 74 634 75 637 76 401 77 411 78 821 79 1336 80 507 81 1019
1537 0.97795937934591348 0.77695872366489982 4.1934368425819519 46 22 35 0.14146636132568274 73 586 74 636 75 639 76 402 77 414 78 822 79 1337 80 508
1538 -0.0065060636680214154 0.54561177756912371 4.3656134760979555 54 67 75 0.16030429641861163 73 605 74 657 75 662
1539 -0.5208307678825782 0.52352918868284537 4.9893174034218468 81 81 77 0.068144870430473126 73 608 74 663 75 669
1540 -0.033176265051346271 0.54492455867551592 4.1363941963595847 21 28 42 0.19814550498550917 73 611 74 668 75 677 76 429 77 440 78 845
1541 -0.075044235980589499 0.58933796647734349 4.1120963857356125 6 12 20 0.24479996145397792 73 618 74 680 75 687 76 438 77 446
1542 -0.093017040800674147 0.60330264308166648 4.1370923719743571 63 76 93 0.33561406801521715 73 620 74 681 75 691 77 450 78 853 79 1361
1543 -0.24466543380300559 0.57149286883886385 4.1678772664322388 91 90 95 0.14367344730230375 71 472 74 685 75 693 76 442
1546 2.6128380977354957 0.69741452067263521 8.4418500752485883 38 48 64 0.2345297103093712 67 479 71 341 73 712 74 755 75 766 72 296 69 537 66 505 83 549 76 276 77 280 79 1249 80 425 65 189 81 808 82 629 105 681 85 842 86 810 87 753 88 527 89 416
1547 -0.71058518743879717 -0.11706463686444731 7.3609731195129067 33 36 30 0.20597728699329357 67 511 73 456 74 506 75 798 78 706
1550 0.0074464455288560209 0.46224977861069827 4.5334645894962691 78 131 174 0.27672817507273023 73 567 74 878 75 871 76 570 78 1065
1551 -0.021665843135255672 0.54576757403393639 4.2057166117766327 11 11 13 0.095847806245880601 73 609 74 664 75 917 76 426 77 593
1552 -0.42459319477971674 0.57154083097931385 4.4401128789507824 46 68 80 0.15175314695336192 73 625 74 922 75 928
1553 0.63948573729234259 0.74219125169982758 3.2918078597966853 46 69 88 0.422421041611589 74 698 75 939 76 720 77 729
1555 1.9456089190755848 1.3522268786840572 6.9827745649873183 116 116 114 0.53044765340204469 67 804 73 813 74 868 75 1050 68 404 69 918 83 660 76 558 78 797
1556 0.50706705643423455 0.79945361805218795 3.4652959675494399 83 94 107 0.31634768701472438 74 1091 75 1101 76 721
1557 0.489612369345933 0.79781890777761499 3.2909551262923817 11 28 54 0.092383321737385796 73 649 74 937 75 1109
1558 -1.0323187224836063 -0.31267281986035106 8.3680359173346375 18 23 19 1.2528320429485427 71 752 73 1075 74 1122 75 1132 72 693 76 633 77 747 78 1201 79 1540 80 716
1559 -0.08943480899026289 0.45365314082687419 4.6021427555523591 79 104 127 0.26426190458358134 73 1115 74 1166 75 1189 76 689 77 692 78 1068 79 1331
1560 0.92017465932984221 0.77198567997921763 4.1672034814060614 14 16 28 0.089158624026517655 73 1014 75 1197 72 602
1561 0.92017465932984221 0.77198567997921763 4.1672034814060614 14 16 28 0.089158624026517655 73 1013 75 1198 72 603
1562 2.456021977892727 0.56980070772213931 6.3162224402328562 80 97 122 0.35301679111998119 71 736 74 1219 75 1245 72 676
1563 -0.57451181398089901 0.060632697401917957 9.397517782753102 64 68 46 1.0308186329479638 67 1083 71 762 73 1185 74 1230 75 1258 70 741 72 793 69 1238 66 1062 68 690 76 744 77 758 78 1210 79 1549 80 723 79 1481 81 1119 84 946 81 1053 105 1190 80 642 85 1150 84 885 86 1129 87 1102 88 756 89 790
1564 2.3467709845217288 1.1385040210637327 6.6344509440988348 26 21 26 0.14178847673253978 71 770 73 1193 74 1239 75 1266 72 710 76 755 77 767 78 1144 79 1492
1565 0.79983736505465652 0.84467074807089371 4.1707090843179273 61 70 79 0.18232514403733743 73 1135 74 1185 75 1292 72 745 76 786 77 800 78 1235 79 1584 80 761 81 1178 82 1226
1566 0.80045200453445231 0.84548082671162139 4.1725641156901379 61 70 79 0.2746128617802146 73 1136 74 1186 75 1293 72 746 71 799 76 787 77 801 78 1236 79 1585 80 762 81 1179 82 1227
1567 2.2593385385467388 1.0113437376485672 6.4005302731139322 65 80 98 0.22165324366043571 71 870 75 1324 69 1330 70 856 76 820 77 831 78 1213 79 1601
1568 -0.448492680053864 0.48023632407282096 4.9096545427909533 70 71 59 0.65231827923467478 73 1283 74 1337 75 1353
1569 -0.11972687423703411 0.47394874605295395 4.248803577515015 32 70 95 0.17555032273902074 73 1285 74 1339 75 1355
1570 0.19149018438490556 0.49842124175841845 6.7471240324258632 14 36 62 1.1745716529246861 67 1264 71 982 73 1320 74 1373 75 1394 70 979 72 908 83 1387 66 1361 69 1458 63 1425 68 879 64 1387 76 909 77 930 78 1302 79 1634 80 805 60 1016 59 950 58 965 57 927 56 911 53 792 52 1318 51 1970 65 1469 49 890 47 1921 45 1446 46 886 44 1411 42 1215 41 616 40 613 39 600 38 565 36 936 35 973 33 340 81 1209 82 1234 84 1049 105 1279 85 1259 86 1240 87 1160 88 826
1571 0.18764574461774358 0.51406138397461931 7.1122591996827804 14 36 62 0.74093775493228042 67 1263 71 981 73 1321 74 1374 75 1395 70 978 72 909 69 1457 63 1424 66 1360 68 878 83 1386 64 1386 76 910 77 931 62 963 61 1047 60 1089 59 949 60 1015 58 964 57 926 56 910 55 1414 54 883 53 791 52 1317 51 1969 50 1424 65 1468 49 889 47 1920 45 1445 46 885 44 1410 43 655 42 1214 43 654 41 615 40 612 39 599 38 564 36 935 35 972 33 341
1572 0.17040679368084116 0.71866170794562112 6.7322074974836585 8 18 29 1.0148064375032899 67 1271 71 942 73 1274 74 1380 75 1402 70 927 72 879 83 1332 66 1310 69 1414 63 1350 68 882 64 1322 67 1205 76 879 77 895 78 1267 79 1613 80 782 62 891 61 865 60 909 59 853 58 870 57 829 56 831 55 1329 54 780 53 647 52 1166 51 1823 50 1278 65 1324 49 719 47 1751 45 1299 46 721 44 1251 43 675 42 1230 41 626 40 624 39 414 40 408 38 383 36 783 37 358 35 790 34 1195 33 351 32 551 81 1193 82 1216 84 1025
1573 0.47969596048380725 0.80526695619633548 3.4589007731621479 48 65 78 0.75303863961360207 74 1354 75 1415 76 919 77 943
1574 1.0709466946092714 0.82432966384431061 4.7795213443755218 13 33 51 0.97496738354299528 71 987 73 1354 74 1403 75 1448 72 914 76 931 77 953 78 1337
1575 0.80369021455942713 0.75513027924215903 4.1156285071412251 8 13 31 0.2966439867747126 73 1386 74 1438 75 1474 72 978 76 954 77 973 78 1352 79 1680
1576 -0.8003377228733175 0.28285908543015265 6.1180327170616264 168 105 109 0.13747129018535256 74 603 75 854 76 364 73 547
1577 1.0288333891625003 0.75468217957458328 4.5460312280449262 25 49 63 0.45318018401317423 74 610 75 862 76 376 77 388
1578 -0.098457096575785552 0.66195464703576978 5.9145269894638757 91 100 119 0.2236228308036419 72 423 74 886 75 884 76 394 73 838 77 572 78 956 79 1329 80 499 81 907 84 853 105 1085 85 1050 86 1106 87 1027
1579 0.90878499127030354 0.76103311375484706 4.2209979763999765 41 54 65 0.14841774108126451 74 892 76 404 73 587
1580 0.024238072794595167 0.50455157879071544 4.375300906386399 69 101 138 0.11364258282340851 74 640 75 645 76 408 77 418
1581 0.88213994873042545 0.79368500321596758 4.1764202788787603 21 24 43 0.12942281763751648 74 904 76 414 77 586 78 979 80 618 81 1099
1582 0.87902399378211049 0.81626665997557379 4.1738274929206911 6 6 11 0.19458381732048849 74 659 75 664 76 417 78 838 79 1202 80 515 81 925
1583 0.91200412523385177 0.87187596493562824 4.1101346114212598 38 40 52 0.22401078637613261 74 671 75 680 76 431
1584 -0.072530627117118607 0.67972493803725853 4.5904200340672983 6 9 16 0.15939510321023576 74 677 75 684 76 434 77 442
1585 0.55734013610679101 0.83853002577154034 3.4996334699588565 42 58 72 0.16650512051247016 75 944 76 459 77 463
1586 0.62861469949828752 0.79054346789398811 3.3188660865077324 56 66 74 0.084208722768593314 75 712 76 461 77 614
1587 0.4939418863129067 0.80920528224370147 3.4036520412695741 82 94 106 0.19334148689101086 75 721 76 464 77 469
1588 1.7312925072776997 0.93793228197276424 7.5940464363288642 35 37 32 0.74606613433389712 68 367 76 524 70 395 83 620 71 614 63 1100 67 969 69 1104 72 704 64 1099 66 1070 77 516 73 497 79 1487 62 635 51 1565 65 1053 49 449 45 706 46 443 44 1017 42 659 41 385 36 523 35 513 34 924 33 331 32 525 48 647 31 564 81 856 84 815 82 1141 105 1044 85 1001 86 857 82 460 87 798 88 560 89 600 90 1062 91 1411 92 1081 93 842 94 1270
1589 2.3371150383905679 1.2245491047490182 7.0219292182640771 16 24 40 0.077865353289778408 72 370 74 828 75 832 76 529 73 778 69 600 77 522 78 921 79 1403 80 567 81 1067
1590 -0.10149483138340028 0.58271148915111359 5.9319417086779076 75 86 97 0.65886235606257315 72 585 74 1046 75 1057 76 562 73 993 77 557 78 946 79 1320 80 488 81 1002 82 1039 84 844 105 1075 85 1038 86 1021 87 959
1591 0.82226716208789141 0.7543109565755558 4.7254271007133086 72 104 137 0.25500395077701166 72 407 74 875 75 1066 76 569 73 823 77 565 78 1064 79 1513 80 680
1592 -0.15588972584043348 0.41483322270324052 4.5105499573707126 68 61 69 0.36140089417197241 74 882 76 574 77 571
1593 0.95406607891344697 0.84748107766992176 4.1654306761866131 29 17 17 0.14314724195646486 74 909 75 916 76 594 77 591 78 985 79 1462
1594 -0.028073928423038352 0.57119298848226729 4.0947565568903412 38 43 60 0.25185597755829248 74 918 75 925 76 596 77 721
1595 -0.060047500079781532 0.67020142048105802 4.1471994058574078 89 97 109 0.25740741440327303 74 925 76 601 73 626 77 600 78 1099 79 1531
1596 0.62534256944424593 0.7820043858822614 3.2628314624650292 6 10 18 0.22758083976740665 75 945 76 609 77 733
1597 2.4419551416713787 0.72621489821641727 6.3745552184488004 75 92 116 1.8236077160276611 72 519 75 1124 76 625 73 916
1598 -0.14709299490394995 0.42901057859313479 4.440589970799917 32 51 56 0.90829436970762911 74 1061 76 698 75 1074 77 697
1600 0.53292596566096406 0.81351538905662535 3.4551470015805292 82 94 108 0.38010511386248796 74 1092 76 724 77 732
1601 0.96683610110540774 0.81212025149929323 4.200478465616925 23 12 20 0.30681317791859103 74 1255 75 1283 76 776 78 1231 79 1575 80 790
1602 0.67204617197827332 0.71485898710080831 3.3197935187302252 62 68 77 0.67337806393029831 75 1231 76 800 77 812
1603 0.88573605684464873 0.7696418976604551 4.1764770536239215 57 74 92 0.1719455668194963 72 816 76 841 70 776 73 1208 69 1267 78 1281 79 1619 80 789 81 1203
1604 0.64975398714273647 0.70105167081245101 3.2928718520364435 2 6 8 0.56468652700337729 75 1301 76 850 77 912
1605 2.0370491177687904 0.5538649578498569 8.6185074042634398 58 72 86 1.133430599751885 46 989 43 955 45 1540 44 1516 39 725 38 686 40 736 41 747 44 1391 35 1075 42 1345 34 1499 43 833 33 643 36 1047 37 626 48 1234 32 1046 75 1387 74 1370 63 1330 59 941 58 840 56 795 57 803 60 1003 62 871 55 1301 61 962 66 1290 46 671 64 1305 70 920 83 1203 67 1069 31 1135 29 680 28 1098
1606 1.6132650531224872 1.0281072892193444 7.4593111127183045 5 10 11 0.53502178393213073 68 880 72 910 74 1375 75 1425 76 911 71 983 73 1322 70 980 83 1389 64 1389 67 1267 69 1460 66 1363 63 1427 77 932 78 1303 62 965 61 1049 60 1092 59 951 58 966 57 928 56 912 55 1417 54 887 53 911 52 1432 51 2088 50 1537 65 1588 49 1010 47 2023 45 1552 46 999 44 1527 43 970 42 1493 41 879 40 851 39 840 38 805 36 1149 37 744 35 1182 34 1613 33 748 32 1166 48 1256 31 1152 29 692 28 1110
1607 0.85711361431276123 0.81951779091152077 4.157693753127905 18 13 18 0.52395371299708238 74 1409 75 1429 76 917 77 937 78 1325 79 1664 80 843 81 1232
1608 0.79172096002665771 0.90541764069841735 4.1403409405913729 3 5 8 0.42233989960639834 74 1445 75 1457 76 937 77 974 78 1342 79 1681 80 853
1610 0.88830574669668028 1.0537323692005123 3.7765194548908267 40 58 70 0.81585160951314384 75 1495 77 991
1611 0.075114716764399431 0.61484271670034618 5.9293362493419979 79 100 129 0.22509751609181694 67 582 71 428 75 867 69 638 72 400 66 613 83 665 76 559 66 612 67 583 69 637 63 644 83 664 64 652 72 399 73 814 74 870 75 866 77 553 78 941 79 1316 80 483 81 998 82 1033 84 839 105 1161 85 1118 86 1097 87 1069 88 735 89 810
1612 2.4792481466296064 0.60603300892724021 6.4691107883670993 59 75 93 0.17014572283367946 73 403 75 434 77 269 78 652
1613 -1.0688234133689669 -0.64993873768809352 8.8021676949816108 52 73 90 0.10222570501387171 69 527 75 755 77 270 79 1022 80 236
1614 2.326366903904856 1.2820002030948758 6.621008991358841 49 71 87 0.071321852054230528 73 795 75 845 76 356 77 362 74 844 78 774
1615 0.89034822413211401 0.83568038611763118 5.56225176604773 8 25 50 0.29874845654144677 69 633 75 864 76 374 77 385 72 396 74 865 73 810 78 939 77 550 79 1318 80 486 81 891 82 1036 84 843 105 1073 85 1123 86 1101 87 1076 90 1211 91 1577
1616 -0.059122638584313589 0.39510386536956776 4.3364720600178144 19 37 54 0.080149207075451964 75 869 76 380 77 391
1617 1.7554501451548801 1.2103203854045692 5.7210597470604663 15 15 19 0.55113928066780316 73 828 75 1068 76 567 77 392 74 1052 79 1166
1618 1.7813404257600731 1.2288861577685708 5.7923937653325588 15 15 19 0.58387451241642963 73 829 75 1069 77 393 74 1053
1619 1.7024499295746462 1.2115391974891689 5.6700397755603094 87 84 80 0.20009376465559528 73 580 75 876 77 403 74 628 79 1328
1622 0.024238072794595167 0.50455157879071544 4.375300906386399 66 98 132 0.1136425828234085 75 646 76 407 77 417 74 641
1623 -0.081476962649906906 0.46570772672753352 4.3467862433246616 39 65 73 0.086029180267751124 75 647 77 420 78 969
1624 0.92996711540809052 0.85376057252679516 4.1779128036368096 24 19 20 0.17698621748042903 75 668 77 435 74 662 78 839 79 1206 80 516 81 1029
1625 0.96062258820767976 0.88215206661254186 4.1839967318602778 61 4 14 0.1980152794123976 75 919 77 437 78 841 80 518
1626 0.86402020456648354 0.93297375196240773 4.2489545118413643 82 91 100 0.47158702014535558 75 926 76 436 77 445 78 847 79 1213 80 522 81 789
1627 0.77497003176188284 0.85716165929725385 4.7385375252276765 22 32 48 0.87650496668468481 73 601 76 585 77 583 74 907 78 1080 79 1450 80 694 81 1142 82 1199 84 1036 105 1268
1631 -0.01211178219279823 0.53151877030453887 4.2426380598879962 22 28 44 0.60866803213746279 69 670 76 419 77 590 78 984 79 1346 80 624
1632 -0.031351479952580981 0.55076925751895633 4.2442340823866811 9 10 17 0.2769297427739687 75 918 76 425 77 592 78 988 79 1463 80 703
1634 0.6546739644009425 0.6267694131013456 2.9428465096496241 0 0 0 0.11685597082298473 75 1100 76 723
1635 0.62610385295511373 0.72268142736186103 3.2948901815658669 76 88 102 1.3871269491823293 76 454 77 610 78 997
1636 2.3951198918648546 0.61043990362418354 6.2102703727395285 78 94 120 0.25258893917153896 69 820 76 619 77 625 70 335
1638 0.8126969275332786 0.70927321982677483 4.2099046067619987 49 62 78 0.31963123227680235 73 837 75 1075 76 577 77 696 78 1073 79 1520 80 687 81 1139 82 1195
1639 -0.03260217175727477 0.52037697880056166 4.3468774130659318 35 71 103 0.31819267848013799 75 1088 76 588 77 711 78 1083 79 1525
1640 0.8375337882481334 0.73069850580951701 4.650779690707326 12 32 43 0.3446249133304698 73 1109 75 1183 76 685 77 779 74 1162 71 641 72 587 70 626 67 808 66 903 68 408 83 921 68 587 78 1159
1641 -0.051487500747124687 0.54140955962076209 4.1255495312035233 113 68 24 0.30946599567338712 75 1294 76 788 77 802 78 1237 79 1586 59 485 57 469 56 483 64 1121 83 1139 51 1329 50 753 65 823 47 1234 45 766 44 763
1642 0.87038660244945398 0.86649009551287093 5.6493590903552162 21 29 45 0.53836247086843325 69 1349 75 1343 77 850 67 1208 78 1222 59 855 37 524 36 946 35 981 34 1393 33 541 81 1167 84 1033 105 1261
1647 -0.28603114955960712 0.65099406599199738 4.5644625846097568 35 42 49 1.4445707621386115 75 1492 76 978 77 997
1648 0.44511368701599796 0.79462991534471739 3.466434707580853 42 57 70 2.6651809078258144 73 1146 77 914 72 763
1650 0.43364794269616685 0.77821068638638835 3.4372464916565564 45 61 72 1.9541654066175989 67 640 71 684 75 1414 83 727 66 667 63 707 64 985 77 913 76 851
1651 2.5244685094884343 0.61769255952099567 6.671527772485133 26 40 53 0.16657852650898483 74 454 78 653 75 435 79 1021
1652 2.7333893256165775 0.81379469928134196 8.3743669251564121 46 54 67 0.47757927736872108 70 347 74 770 76 285 77 290 78 680 73 722 75 777 69 541 80 431
1653 2.4186106934419502 0.92062777216378144 6.639334538383034 24 35 53 0.096753349479703515 74 513 78 717 75 500 79 1076
1654 -0.69159478687266396 0.078778195487148747 7.0136201868743901 30 32 32 0.25949943597298059 74 538 76 320 77 330 78 740 75 529 79 1103
1655 -0.83964868968778872 0.21037020391287864 8.0077388562169034 37 38 42 0.80740515841931582 74 556 76 528 77 342 78 752 75 555 77 520 80 325 81 697 82 715 82 1004 81 858 84 818 105 916 85 893
1656 0.81774424691911685 0.73423946991160938 4.5136759651254765 79 100 128 0.31337939481057442 74 619 77 566 78 813 75 875
1658 -0.084954612596407145 0.46872637473854378 4.3036770731017766 8 12 22 0.14557149535167671 74 645 78 831 75 651 79 1194
1659 0.63459356842322945 0.89110343640825851 4.7185601203979006 11 32 60 1.5791759378939081 74 667 76 427 78 840 75 921 73 612 69 679 79 1347 80 623 81 1100 82 1202 78 1091 84 974 105 1270 84 1040
1660 -0.086590412955352997 0.61557225037671914 4.1375104227876944 6 11 18 0.24003401746475209 74 684 78 854 75 692 79 1217
1661 0.8957060439904595 1.0029548900264409 4.2432956529728889 83 92 102 0.36424773267859722 77 451 78 855 79 1218 80 525 81 933
1662 0.91125304983166133 0.75662550059903821 4.2660813226654275 53 82 112 0.92414292601265002 76 400 77 409 78 962 75 887 79 1440 80 609
1663 -0.01224233256962819 0.53440145684113671 4.4273865693042307 25 32 44 0.60551171201916265 76 586 77 584 78 975 79 1453 80 616
1664 -0.014299044598728938 0.53618994645070961 4.4341525666543751 25 32 44 0.6132215147804263 76 587 77 585 78 976 75 1087 79 1454
1665 0.97176719081801866 0.84476847760910034 4.2054576907095358 140 110 123 0.10583198752413417 76 416 78 982 75 911 74 908 79 1460
1666 1.2326839149157445 1.0776333004433938 4.7269820369510791 72 86 69 0.11574966328255248 76 422 77 433 78 986
1667 -0.05449202070349074 0.63164246986539396 4.2130404024127914 158 165 169 0.31060396895181658 76 439 77 447 78 994 79 1466 80 707
1668 0.90146227758361397 1.0098145029728962 4.3400437440420383 4 8 12 0.35325533689301514 76 440 77 449 78 995 79 1358 80 524
1669 2.264728584486893 0.99097382086514219 6.2887278383007592 70 85 105 0.21207429063517408 74 1002 76 511 78 1020 73 947
1670 0.8534967793148398 0.63604585821980031 4.2691594928586571 17 44 72 0.4999460913253696 74 1035 76 676 77 682 78 1052 75 1037 79 1508 80 743 81 1168 82 1190 84 1034
1671 0.80703582514454697 0.93374973725023869 5.1355180851238424 89 99 110 1.3299473111303484 74 649 76 582 77 707 78 1079 75 1083 75 904 79 1524 80 755 72 614 70 472 69 943 83 699 67 616
1672 1.2175353574201975 1.0538045863973067 4.8710736367172531 29 56 77 0.46010145307840677 76 708 77 710 78 1081 75 1202
1673 1.2492467524875821 1.0691682285893085 4.8492287176464721 30 51 74 0.071975311364667977 76 592 77 588 78 1084 75 913 79 1455
1674 1.2526810489097442 1.0724790584963539 4.859753073826985 30 51 74 0.052800997433952494 76 591 77 587 78 1085 75 912
1675 0.99421384171401939 0.89088925106400207 4.2362959572577443 106 107 112 1.4769534456561968 76 423 77 715 78 1090 75 672 79 1528
1676 -0.88411808269410685 -0.11474874144474038 7.5276193288807383 9 10 13 0.84915818558149758 74 994 77 752 78 1128 72 543 68 341 71 597 69 861
1677 2.793554741465853 1.2089471995432146 8.1443546515656209 107 105 109 0.91393820711580542 74 1001 76 648 77 652 78 1138 75 1149 79 1553 80 728 81 1123
1678 2.6760763822205136 1.1718486183694037 7.8601404912198918 107 105 109 0.57405715428615156 74 1000 76 649 77 653 78 1139 73 765 75 1148
1679 2.2361673836027416 1.3608988339776451 6.6731210287755207 54 73 93 0.17484936914533872 74 1245 76 758 77 772 78 1154 75 1272 72 724 73 1200 79 1504
1680 1.5675802717105887 1.1264736378846152 5.170097545526934 3 8 13 0.3788927909190995 76 697 77 784 78 1167
1681 1.1951539548502967 1.0507431796652345 4.6995592288466481 7 16 16 0.11099143426475459 76 710 77 714 78 1176
1682 0.94040203269751343 0.90874286237648894 4.1872192537850408 30 41 51 0.19588763430499787 76 711 77 717 78 1182 79 1529 80 763
1683 0.90120217299291805 0.98130454825877544 4.3108110348766839 85 94 104 0.20249103149500136 76 716 77 722 78 1184 79 1530 80 706 81 1105
1684 1.306661306396383 1.011608365708452 4.683686666206885 79 90 91 0.12151598853198352 76 775 77 788 78 1229
1685 0.95134703844493229 0.86320619401368126 4.177212845403548 51 27 33 0.26205417245127893 77 798 78 1233 76 785 79 1581 80 794
1686 0.90652583881257642 0.89507048509951981 4.1867736641922555 61 70 81 0.32256373982359271 76 843 77 865 78 1238 79 1621 80 796
1687 0.90652583881257642 0.89507048509951981 4.1867736641922555 61 70 81 0.32256373982359271 76 844 77 864 78 1239 79 1620 80 795
1688 2.4812563828903369 1.1183719768936256 7.0527560501032491 66 80 99 0.77849531019830887 74 1372 76 866 77 882 78 1255 75 1393 79 1631 80 772
1689 0.70420363701894284 0.93013240995247581 5.7359885118097029 11 33 60 0.91597145259174062 70 882 74 1330 76 886 77 901 78 1275 73 1280 75 1350 72 882 79 1643 80 811 81 1199 82 1238 84 1071 105 1300 85 1262 86 1252
1690 0.70420363701894284 0.93013240995247581 5.7359885118097029 11 33 60 0.91597145259174062 70 883 74 1331 76 887 77 902 78 1276 73 1281 75 1351 72 883 79 1644 80 812 81 1200 82 1239 84 1072 105 1301 85 1263 86 1253
1691 0.8148184961512388 0.91648944402203347 4.0879276103879834 4 6 12 0.474418610510216 76 896 77 908 78 1288
1692 0.95673039417369776 0.80470865132384017 4.2224496507639033 29 20 26 0.62910011018419509 76 889 78 1312 79 1648 80 829
1693 2.05945910818888 0.49027729441349249 6.426344988297207 52 66 75 1.1286288832411473 74 1450 76 946 78 1330 75 1461
1694 -0.062871969891478446 0.56223112729483016 4.6933479095470538 48 66 91 0.50379618983095631 76 934 77 955 78 1340
1696 0.57211052625058023 0.38289434208210321 3.0446455294497961 77 113 156 2.3456426232512202 77 1004 78 1371
1697 0.64443482822880438 0.92247110474033622 5.8971835121412415 97 108 126 0.22351237937155116 70 458 74 890 76 576 78 959 72 424 73 842 75 889 83 687 69 666 67 822 76 396 63 664 79 1330 80 605 81 1008 82 1042 84 855 105 1166 85 1126 86 1108 87 1083 88 741 89 819
1698 -0.14990951030823541 -0.030173238192089731 5.0653401841782726 63 68 77 2.8133271733774721 76 982 78 1368
1699 -0.96590521246402583 -0.72205366827978035 8.8451548847097126 47 61 70 0.091828202757537211 75 429 79 766 74 452 82 621
1700 2.3817830277687224 1.0854860445320023 7.5549750411013479 52 59 67 0.12624953831458002 75 526 79 853 81 457 82 442
1701 2.3269751788384827 1.2301424875155269 7.092981761269078 28 55 73 0.198118826968957 75 559 79 891 73 515 81 488 82 490
1702 2.3216013588522557 1.268738642624488 7.1315884580906834 10 13 30 0.14289559967410795 75 570 79 893 73 524 74 576 69 607 80 337 81 713 81 869 82 729
1703 2.2976896721338087 1.2634826129911418 6.8905599042781844 55 76 96 0.092856285635800132 75 573 79 897 80 340 81 716
1704 2.1638165557429692 1.2669241767018711 7.0758989729746711 26 47 67 0.23290152965703628 75 579 79 902 73 534 81 499 82 504 83 301 105 574
1705 -0.44556403506752412 0.504962596909724 7.3144698504200569 7 17 14 0.11810301754764423 75 600 79 913 74 597 80 346 81 726 82 739 84 565 105 797
1706 0.84861811254127562 0.71858793483420136 4.1912213367426228 14 24 47 0.36363770884926622 75 635 79 963 81 919
1707 0.93762068216164351 0.75206179036326692 4.1809446307266747 82 116 156 0.2911511273429348 75 636 79 967 80 389 81 774
1708 2.5591177493688035 0.25770714269464085 6.6003449174925528 80 95 116 0.15271022576140303 75 411 79 1009 73 385
1709 -1.0757237387672534 -0.65458366187620987 8.8307477562539933 55 70 84 0.061346462140792174 75 756 77 271 79 1023 80 235
1710 2.9468853870915059 1.0450300735542628 8.3236103593473629 30 44 60 0.34311078906219911 75 796 78 707 79 1070 74 792 73 454 80 277
1711 -0.72447206455339774 0.075377259504909061 7.1462413060271626 28 32 33 0.60512763479319553 75 530 77 329 78 739 79 1102 76 319 80 313 81 456
1712 -0.4566865084647978 0.56209373004014795 7.2941939627772872 11 14 19 0.091456388431854399 75 611 79 1151 80 354 81 731 82 748 84 575 105 805 85 771
1713 -0.12112696425949594 0.64322540200612033 5.9430252324770532 42 49 66 0.2530419108700051 75 630 79 1173 73 579 74 631 80 378 81 748 82 766 84 589 105 969 85 941 86 907 87 861
1714 -0.072990670670224453 0.65229223170347828 5.906901936766948 9 15 27 0.2019118908961669 75 632 79 1175 74 633 80 377 81 750 82 768 85 943 86 909 87 964
1715 1.2450470880180382 1.1061334277792194 4.6404747096636196 131 118 123 0.048660064814223712 78 842 79 1207 77 439
1716 -0.046080381960776969 0.56300466317789088 4.259187082043141 67 74 85 0.12890419299527775 78 843 79 1208 80 519
1717 0.92673653909799425 1.0193295371570397 4.1754738602826693 90 100 111 0.12397864604504495 78 857 79 1220 80 527
1718 -0.97720436621026585 -0.76033531672197785 8.7943728683252278 151 150 154 0.33096918533660219 75 967 77 481 79 1239 74 961 47 1104 65 686
1719 0.00083420632626209773 0.51553527842355351 4.438967441269309 48 78 107 0.60144428496277991 77 422 79 1339 81 1096
1720 -0.053828088517065456 0.60687586602701404 4.2921070612304941 4 11 17 0.10320095692263376 78 846 79 1354 80 627
1721 -0.053415808736505338 0.62033379643475728 4.2776887640166974 7 14 22 0.25880513150220746 77 444 79 1357 80 629
1722 -0.077539549741355004 0.60656693533199146 4.1394033005141688 57 67 83 0.20786658977361339 75 688 78 852 79 1359
1723 -0.077539549741355004 0.60656693533199146 4.1394033005141688 57 67 83 0.20786658977361339 75 689 78 851 79 1360
1724 1.9550879624716786 0.87509020607827537 8.8375893363395956 39 53 66 0.40135204250594714 63 578 71 384 75 1000 78 1017 79 1395 70 380 74 997 67 758 69 870 72 341 64 583 66 833 83 874 68 347 72 546 62 409 61 432 59 430 55 633 50 672 65 741 47 1155 42 643 44 664 35 502 34 917 48 633 31 554 86 1066 105 1125 85 1084 87 989 88 699 87 1044 89 733 90 1120 91 1476 92 1159 93 883 94 1316 95 858
1725 0.91508069020592464 0.74239438482422349 5.6788381593817148 12 42 68 0.27452381469046688 71 627 75 1026 77 675 78 1043 79 1408 74 1026 76 666 73 973 72 566 80 577 81 982 82 1020 84 907 105 1148 85 1105 86 1148
1726 0.83849011332116463 0.81087891419678371 5.5838468646075325 69 89 115 0.34620405636705964 63 640 71 427 75 1047 77 546 78 1054 79 1423 70 427 74 1040 76 555 69 630 73 809 67 576 72 395 66 608 83 658 80 482 65 349 81 888 82 924 105 1071 85 1036 87 1016 89 767 90 1190
1727 0.33713287927462138 0.8652788290244231 6.8583322766842638 103 112 130 0.18617704949532371 63 921 71 437 75 1062 77 561 78 1061 79 1430 70 442 74 1051 76 564 69 929 73 998 67 816 72 591 64 943 66 914 83 931 68 414 80 596 55 704 51 1312 50 732 65 809 81 1001 84 919 105 1162
1728 0.65503336866687034 0.95495148732273327 6.6120960640211903 73 90 112 0.71442640204924335 63 653 71 439 75 1065 77 562 79 1432 76 565 67 594 74 1054 70 444 72 414 64 666 80 598 81 1004 65 365 84 923 85 1121 86 1099 87 1070 88 734 89 764 90 1183 91 1542 92 1258 93 964 94 1385
1729 0.94264459795819966 0.77944354904762725 4.1774145130561156 16 7 12 0.11097023126294273 75 896 79 1448 74 895 80 611
1730 -0.028719712849745997 0.48879729222947721 4.3279534765432111 17 32 57 0.23364926788653556 77 706 79 1449 76 704 80 695
1731 0.7642279823716962 0.77742122926539303 4.3383110506650597 3 5 10 0.21187376197358634 77 427 78 977 79 1452 76 412 75 905 80 614 81 1097 82 1166 84 1011 105 1269
1732 1.3000818395753719 1.1072077537673721 4.8922659252542244 30 51 74 0.87001951735413352 77 712 79 1457 76 709
1733 -0.03512651697861862 0.54266986692614883 4.4039683775892993 15 29 43 1.5435371904634427 78 981 79 1458 80 700
1734 0.9865498724088011 0.86193190939789377 4.2523664427334467 133 103 113 0.49390405912749608 78 983 79 1459 80 622
1735 -0.027303689639614867 0.65816153810874467 4.6188701340541343 131 142 159 0.36234531381887053 75 923 77 595 78 990 79 1464 80 702 81 1103 82 1169
1736 2.9411121044780018 1.125645552513646 8.564241772885703 41 51 61 1.7043674578277448 75 1257 78 1130 79 1480 74 1133 76 641 77 757 77 642 73 934 80 554 76 501 78 897 75 497 73 460 81 1052 82 1078 80 290 84 948 82 1134 105 1189
1737 1.7088948477502688 0.95761260536100468 8.0725697656749986 58 63 68 0.56410291266527879 71 766 75 1260 77 763 78 1140 79 1486 70 745 76 750 69 1241 73 1188 67 970 74 1233 63 1236 72 705 64 1215 68 694 66 1197 83 1221 80 650 62 769 61 848 60 893 59 840 58 856 57 813 56 809 55 1149 54 768 53 785 52 1309 51 1963 50 1262 65 1302 49 695 47 1913 79 1556 45 1273 46 699 44 1235 43 650 42 1203 41 606 40 602 39 589 38 552 36 926 37 511 35 968 34 1374 33 519 32 925 48 1088 31 1005 29 531 81 1056 82 1085 105 1043 80 457 79 1115 85 1002 87 911 88 639 89 683 90 956 91 1409 92 1164 93 844 94 1271 95 862
1738 0.83464886408640171 0.67820777176789404 4.1809270217099241 8 16 35 0.52960552367533842 77 780 78 1162 79 1516 76 768 80 682
1739 0.99421384171401939 0.89088925106400207 4.2362959572577443 103 106 111 1.4769534456561968 78 1089 79 1527 77 716 76 424 75 673
1740 -0.50347711462305322 -0.19716016269333794 8.2621996416653207 50 65 71 0.94777570900370189 71 750 79 1539 69 1072
1741 0.86268759654831972 0.82839112892757905 5.7551868816161056 58 84 113 1.3910089007618267 71 781 75 1274 77 775 79 1561 76 759 70 758 72 727 80 739 78 1055 76 556 77 547 79 1424 75 1048
1742 -0.18260747413778883 0.597448835202679 6.0823582912701575 159 167 184 0.31393066171594158 75 1347 77 851 78 1223 79 1563 76 883 80 746 81 1133 82 1150 84 967 105 1209 85 1173 86 1159
